# .PCD v0.7 - Point Cloud Data file format
VERSION .7
FIELDS x y z rgb label object
SIZE 4 4 4 4 4 4
TYPE F F F U U I
COUNT 1 1 1 1 1 1
WIDTH 1086
HEIGHT 1
VIEWPOINT 0 0 0 1 0 0 0
POINTS 1086
DATA ascii
19.000463 -166.87679 1337.7618 9874033 0 -1
-20.937527 62.932098 1333.1525 11453573 0 -1
-325.07959 -92.879745 1278.5598 10203511 0 -1
-71.167145 -124.97659 1322.488 11650185 0 -1
168.62712 75.254005 1365.9156 9281383 0 -1
-209.11693 75.109238 1300.6967 14218674 0 -1
321.12201 -2.8316016 1391.4146 8821347 0 -1
220.02364 -203.42194 1371.9681 9545063 0 -1
-200.87103 98.940842 1302.4065 13493667 0 -1
83.793304 135.74855 1352.0299 9676396 0 -1
130.78322 -11.10865 1358.4738 9676650 0 -1
181.17288 -177.16551 1365.6758 9544807 0 -1
-268.89792 293.00146 1293.0186 8689512 0 -1
136.79527 194.79953 1361.6492 9150056 0 -1
-213.07903 29.100473 1299.4191 15007164 0 -1
261.71304 102.77484 1382.0243 8623968 0 -1
-71.159271 61.128525 1324.4907 12508818 0 -1
65.162605 306.24908 1350.4073 8755046 0 -1
243.71667 -4.8012466 1378.0667 9084005 0 -1
296.70837 72.896072 1387.8479 8821346 0 -1
294.87784 61.114914 1387.3461 8951905 0 -1
168.63571 269.07541 1367.7944 8755042 0 -1
156.76158 150.94067 1364.5835 9084261 0 -1
-113.08685 -65.073906 1315.804 13757091 0 -1
-58.481895 183.61047 1328.0708 10071925 0 -1
17.287416 297.09329 1342.1952 9017959 0 -1
229.04874 -125.19202 1374.3281 9347430 0 -1
115.7935 192.64066 1358.0247 8953190 0 -1
309.01404 -182.94766 1387.5325 9150050 0 -1
19.200277 266.99509 1342.2146 8953450 0 -1
-62.362362 -128.2347 1324.0002 10992509 0 -1
-136.75935 -196.93747 1310.1139 10335609 0 -1
277.14804 48.8689 1384.1825 8886626 0 -1
226.97018 183.07619 1376.8965 8821091 0 -1
351.11526 -123.03618 1395.3425 8820576 0 -1
269.06598 -216.79915 1380.3268 9545062 0 -1
-222.97134 -204.82976 1294.9421 10137716 0 -1
288.98157 -155.15437 1384.3451 9215844 0 -1
-69.892113 -13.193342 1323.9465 13429150 0 -1
-288.94995 -28.949062 1285.5007 11585934 0 -1
-277.17178 -11.113454 1287.7285 12178330 0 -1
61.184658 -43.147823 1346.3324 9874545 0 -1
-248.9416 125.01026 1294.213 11322505 0 -1
233.14238 -4.6661835 1376.1147 9084517 0 -1
-163.0659 221.15729 1310.4801 9940342 0 -1
-71.454559 21.0644 1323.9435 12774046 0 -1
-82.465164 25.008158 1322.1088 13825196 0 -1
100.97958 51.025532 1354.1326 9546094 0 -1
121.12485 121.06408 1358.1732 9413482 0 -1
257.099 -194.89282 1378.5731 9281893 0 -1
210.79303 75.226936 1373.0671 9084518 0 -1
-266.93127 80.996468 1290.6888 11847564 0 -1
-111.02476 -136.92313 1315.3977 11520396 0 -1
-60.836178 260.92578 1328.5304 9150829 0 -1
-259.01572 162.89429 1293.1074 10466685 0 -1
64.468521 74.416145 1347.9216 9413997 0 -1
195.10774 227.17142 1371.8263 8886372 0 -1
168.85391 -67.210312 1364.6331 9610345 0 -1
-314.84903 -107.06444 1280.1434 10401657 0 -1
-102.83118 10.967375 1318.3434 14022581 0 -1
352.31241 96.842262 1396.8296 9014109 0 -1
-34.576218 195.00522 1332.1394 9940086 0 -1
-136.83905 -22.997122 1312.208 15990739 0 -1
-141.13089 146.94385 1313.3434 11717266 0 -1
-162.96707 62.981945 1308.5164 15138746 0 -1
-299.09082 -96.991165 1282.91 11059076 0 -1
207.11935 290.9581 1374.6744 8688992 0 -1
-256.87332 -105.01715 1290.1782 10862727 0 -1
-157.49474 -73.101463 1307.9377 14021809 0 -1
216.25005 279.14279 1375.9385 8558433 0 -1
131.01288 81.128075 1359.5492 9544554 0 -1
60.786354 76.829475 1347.4631 9677166 0 -1
-52.360687 79.085487 1328.0342 11850126 0 -1
-70.925224 208.89275 1326.141 9939571 0 -1
-190.88007 254.91849 1306.1194 9282670 0 -1
28.491289 -62.913742 1340.2823 9675888 0 -1
254.22565 -187.28764 1377.9023 9216098 0 -1
319.17438 52.780289 1391.5413 8820832 0 -1
-189.02731 163.16661 1305.1749 10928002 0 -1
-78.95639 233.00813 1325.0432 9675886 0 -1
30.971056 -223.08499 1339.1708 8949593 0 -1
279.03738 101.08241 1384.9878 8886626 0 -1
-165.06255 182.92078 1309.6035 10861183 0 -1
-144.91898 204.937 1313.3508 10203512 0 -1
86.787025 244.83754 1353.5127 9084262 0 -1
-32.925129 25.009899 1330.8269 12374929 0 -1
346.965 315.04034 1399.1564 6252876 0 -1
-156.92731 116.97927 1310.1873 13164701 0 -1
-260.94983 198.85669 1293.1348 9743478 0 -1
14.829206 79.00708 1339.4838 10532217 0 -1
333.04916 -202.94147 1391.5282 9018465 0 -1
23.064856 21.064634 1340.4464 10729338 0 -1
-205.0692 -65.083031 1299.6989 13627304 0 -1
217.16727 -203.08231 1371.6111 9544808 0 -1
-250.96696 -182.94376 1290.2767 10269303 0 -1
-180.9933 197.09177 1307.0276 10269049 0 -1
-110.96152 58.965626 1317.4998 14612405 0 -1
-148.90115 6.8345952 1310.17 16056288 0 -1
7.0937581 -172.972 1335.723 9940080 0 -1
273.85925 88.801079 1384.0552 9148772 0 -1
-323.03186 -25.137732 1279.5635 10796420 0 -1
301.07578 263.00568 1390.533 8163676 0 -1
165.01471 -210.88965 1362.4548 9545064 0 -1
-79.221649 113.38928 1318.9252 729104 0 -1
-110.85279 -6.933291 1316.9061 15531978 0 -1
58.810074 -123.16772 1344.9995 9939310 0 -1
-112.4156 -48.655872 1309.0706 597777 1 0
-226.99397 257.02939 1299.7859 9216621 0 -1
-49.177574 -0.98004323 1327.7355 13099161 0 -1
-203.32364 -76.864799 1299.8248 13626533 0 -1
-239.04895 154.94435 1296.4319 10665346 0 -1
179.72072 -4.9737701 1362.2045 598033 1 0
19.592789 49.104641 1340.1431 11188347 0 -1
213.16763 -53.187492 1372.3008 9018726 0 -1
172.16847 18.57509 1365.946 9346917 0 -1
218.95735 154.98563 1375.269 8952161 0 -1
-19.010506 -221.08524 1330.4177 9545066 0 -1
-258.95483 125.12042 1292.6299 11388041 0 -1
233.17923 -180.84528 1374.5692 9348197 0 -1
104.9929 -40.826054 1353.8243 9808237 0 -1
110.81571 262.952 1357.8397 8756069 0 -1
-112.9495 -146.97849 1314.936 10863749 0 -1
102.88507 66.988472 1354.6318 9676910 0 -1
263.04114 16.867458 1381.4585 8755811 0 -1
-18.994255 -7.0105004 1332.8677 12045193 0 -1
44.811161 183.1749 1345.7212 9479534 0 -1
-46.162884 -4.9196029 1328.0789 13690277 0 -1
248.88226 -219.03951 1376.7966 9478501 0 -1
126.75896 -24.881496 1357.6704 9807723 0 -1
63.159687 -59.007103 1346.5022 10070899 0 -1
62.682457 14.548449 1342.0313 598288 0 -1
218.99542 42.804569 1374.1024 9084515 0 -1
96.783928 -46.811165 1352.417 9742956 0 -1
-5.0253572 -63.04171 1334.6742 11059586 0 -1
-67.186203 172.82735 1326.4435 10335097 0 -1
-219.03601 -162.90009 1296.0956 10862207 0 -1
66.281128 235.07439 1349.9208 9084521 0 -1
-280.24512 203.48346 1290.0493 9808501 0 -1
196.55057 208.76994 1371.9452 8821091 0 -1
-242.97363 -8.9682846 1293.6394 13758121 0 -1
-160.94075 -144.87161 1306.3998 11782286 0 -1
-56.815727 11.018977 1326.5121 13165214 0 -1
150.87405 229.07394 1364.3613 8952421 0 -1
10.928336 -51.071102 1337.5659 10861437 0 -1
-260.96252 219.11629 1293.4122 9545583 0 -1
-29.429205 141.57805 1332.1476 9674867 0 -1
-196.99934 296.85934 1305.4473 8887402 0 -1
53.212196 305.15027 1348.5967 8755556 0 -1
-320.12378 115.10785 1282.0326 9940089 0 -1
-58.854397 -162.84329 1324.3427 10335094 0 -1
112.94086 84.840302 1356.5186 9413481 0 -1
69.176247 -154.90562 1346.4341 9676141 0 -1
284.91913 16.939295 1385.2201 8886883 0 -1
7.1047769 167.01047 1339.1371 9808756 0 -1
337.77838 -24.84413 1394.0428 8623455 0 -1
-55.060642 121.05425 1327.7291 11059339 0 -1
120.72185 -60.955303 1356.3049 9676649 0 -1
339.06253 75.055962 1395.1741 8558176 0 -1
-22.734343 -3.0837593 1332.1477 11914890 0 -1
-247.00444 -157.03149 1291.3163 10597755 0 -1
312.93954 -60.874672 1389.272 8821346 0 -1
-87.164581 -218.99442 1318.6359 9741935 0 -1
314.85861 117.16827 1391.3251 8755553 0 -1
-171.20544 -214.91916 1303.7983 9940596 0 -1
333.20584 170.93767 1394.9807 8426079 0 -1
246.30872 -39.733757 1377.9995 9150309 0 -1
-39.071236 253.14885 1332.243 9216618 0 -1
236.83687 -110.89326 1375.8391 9216358 0 -1
318.95511 98.630234 1391.894 8689505 0 -1
326.86374 -118.843 1391.1108 9018209 0 -1
-249.25476 250.87393 1295.826 9281646 0 -1
27.16395 197.05656 1342.8503 9610349 0 -1
-103.12624 207.1526 1320.6552 9743477 0 -1
-268.95587 72.941078 1290.2307 11453575 0 -1
38.804729 -184.98779 1340.8531 9480044 0 -1
77.239975 -181.10953 1347.7169 9675883 0 -1
52.858074 -74.99588 1344.5902 10071409 0 -1
-100.34466 131.07982 1320.083 11453836 0 -1
322.99841 -41.097225 1391.3156 8952674 0 -1
88.496056 244.83842 1353.8401 9084263 0 -1
-157.12709 196.94922 1311.1124 10203513 0 -1
-42.959126 -25.008657 1328.4779 12506259 0 -1
-237.42802 83.01004 1295.8579 12901017 0 -1
-182.99263 214.92021 1306.9039 9940344 0 -1
333.04559 44.988651 1393.7856 8689761 0 -1
-265.07413 -149.01671 1288.1956 10401661 0 -1
26.949989 -40.997639 1340.46 10664060 0 -1
-175.00162 121.08376 1307.2002 12376476 0 -1
12.878052 134.85341 1339.6885 9940852 0 -1
155.13681 -66.996605 1362.1384 9479784 0 -1
239.21111 -46.960358 1376.7003 9281637 0 -1
-320.71423 140.97348 1282.217 9809012 0 -1
310.83884 25.17354 1389.7391 8755808 0 -1
10.944244 74.84166 1338.8398 10598523 0 -1
258.49686 -57.967308 1379.951 9149283 0 -1
-271.836 -72.819336 1287.9508 11717774 0 -1
-75.12175 232.86534 1325.7412 9413998 0 -1
282.30228 161.0099 1385.9242 8820577 0 -1
70.839905 123.03558 1349.5497 9479530 0 -1
-128.95573 -187.13504 1311.6614 10532220 0 -1
-70.512688 193.06862 1326.0345 10072183 0 -1
-303.02951 142.97803 1285.2261 10137720 0 -1
-119.12645 -148.98824 1313.7395 11191432 0 -1
124.99026 -134.83514 1356.4578 9414248 0 -1
-322.53976 1.0196562 1280.0471 10664830 0 -1
335.08212 -70.868927 1393.0118 8689759 0 -1
-33.174522 217.17908 1332.6793 9545586 0 -1
-299.41339 -11.051426 1283.9166 11520647 0 -1
6.4474378 274.28345 1339.9846 9019241 0 -1
303.73285 -25.074554 1388.0831 8821602 0 -1
25.003185 -7.0532265 1340.4711 10795901 0 -1
196.82874 145.00403 1371.4622 8952932 0 -1
-84.959251 71.114594 1322.1854 13100453 0 -1
179.02942 -199.19373 1365.0251 9676392 0 -1
-116.89852 125.09618 1317.2114 12244886 0 -1
170.72731 223.11449 1367.6135 8886372 0 -1
16.825439 -220.97592 1336.6531 9413482 0 -1
271.97668 -100.36063 1382.0005 9149794 0 -1
5.1260266 72.842758 1337.8009 10992767 0 -1
-10.521631 173.09204 1336.0984 10137460 0 -1
-147.03679 69.029724 1311.3838 14089657 0 -1
-24.644043 -166.95628 1330.1432 9873775 0 -1
253.12508 116.80257 1380.8586 8886371 0 -1
-306.9678 24.955429 1283.0706 10795647 0 -1
-306.1402 -63.036243 1282.054 11124872 0 -1
-262.99255 -1.1757635 1290.3657 12507545 0 -1
-29.145666 135.69092 1325.4512 992789 1 0
-116.90793 127.02055 1317.2238 11916690 0 -1
326.49081 182.69804 1393.9838 8426847 0 -1
295.03244 -151.12859 1385.3075 9150564 0 -1
88.83007 -35.008083 1351.1373 9742957 0 -1
-102.0943 -22.93136 1318.0316 14218159 0 -1
345.44067 -140.89682 1394.0408 8755296 0 -1
186.83647 297.13788 1371.1616 8557664 0 -1
-73.016563 -195.0233 1321.4199 9939569 0 -1
32.840393 -193.25941 1339.7545 9545067 0 -1
-60.94297 -181.09842 1323.6062 10202741 0 -1
199.09442 -6.7552042 1370.2159 9478503 0 -1
235.01714 -2.7867413 1376.416 9281125 0 -1
-42.998096 272.87329 1331.5643 9150315 0 -1
-166.96078 189.04802 1309.375 10598266 0 -1
-320.04645 -41.835602 1280.0079 10795649 0 -1
-202.95241 60.88937 1301.5242 14022831 0 -1
92.857224 27.663609 1347.231 597776 0 -1
-287.09921 -206.86794 1283.6429 9612144 0 -1
-279.09521 -161.05569 1285.6846 10007159 0 -1
-278.98602 -227.05319 1284.7992 9872751 0 -1
-202.966 -157.06862 1298.9993 10992256 0 -1
-315.54483 203.05324 1283.866 9347696 0 -1
275.33356 -146.95213 1382.1259 9347174 0 -1
168.40936 295.9501 1367.9895 8427107 0 -1
-328.52377 -147.04382 1281.712 461064 0 -1
315.13589 91.058037 1391.2032 8624225 0 -1
-157.12772 64.924873 1309.6841 15531704 0 -1
286.26489 74.880844 1385.9231 8820832 0 -1
-286.17197 -29.189581 1286.0048 12111759 0 -1
-89.172371 47.113796 1321.1678 13757349 0 -1
76.954643 -14.922476 1349.3784 10071666 0 -1
70.52533 23.880329 1348.1621 9344361 0 -1
-134.83046 238.83589 1315.6158 9611636 0 -1
-278.98169 -52.991432 1286.9214 11453574 0 -1
213.01093 269.00186 1375.2556 8623457 0 -1
-51.080444 -24.985462 1327.1292 12508314 0 -1
-248.86607 -80.949821 1291.8584 11914380 0 -1
18.682384 252.6969 1341.8762 9347436 0 -1
-150.99062 -123.01614 1308.4407 12507539 0 -1
320.88525 158.98448 1392.7432 8557920 0 -1
79.00473 51.074501 1350.4706 9874031 0 -1
280.92767 228.93256 1386.5864 8360798 0 -1
281.12659 95.021622 1385.3042 8886627 0 -1
193.17374 143.13965 1370.7198 8887139 0 -1
-125.00488 153.01543 1316.1631 11519112 0 -1
103.23829 -205.15833 1351.8212 9413991 0 -1
-142.87582 -64.953499 1310.7111 14614202 0 -1
-240.97742 208.98701 1296.7131 9808242 0 -1
54.797768 -25.095057 1345.4359 10203253 0 -1
25.010197 225.0383 1342.6335 9347692 0 -1
235.1591 297.07501 1379.4347 8426334 0 -1
-1.1668459 38.887985 1336.3864 11059587 0 -1
348.85794 -173.00613 1394.3909 8821344 0 -1
347.06711 266.95749 1398.4146 7833944 0 -1
-245.06314 -33.036415 1293.0862 13165473 0 -1
-136.95908 -140.87231 1310.6448 11651725 0 -1
-328.19095 -51.028122 1279.4268 8418382 0 -1
-270.94208 12.968559 1289.2111 12704923 0 -1
-201.93152 85.362495 1301.9835 13822377 0 -1
229.15619 95.055855 1376.4714 9149797 0 -1
-191.02477 -190.90947 1300.6667 10269814 0 -1
-201.14273 175.05591 1303.3257 10401919 0 -1
-153.84314 38.779427 1309.9207 15794116 0 -1
86.89962 260.97684 1353.7135 9018470 0 -1
22.440542 -193.6548 1337.9834 9741932 0 -1
-17.068962 -36.902142 1332.9064 11521162 0 -1
182.90526 -21.148603 1367.6079 9151336 0 -1
69.291634 -193.4075 1346.0962 9151079 0 -1
289.08206 168.8782 1387.3563 8689505 0 -1
-96.80098 252.98845 1322.1605 9216363 0 -1
-34.894867 -155.04195 1328.4865 10203511 0 -1
276.97711 222.88777 1385.7909 8492383 0 -1
-198.9185 255.10205 1304.5985 9544561 0 -1
-276.95969 -196.95335 1285.5061 9874802 0 -1
117.06158 111.08877 1357.4559 9347689 0 -1
-149.02377 33.046558 1310.6146 15990744 0 -1
-12.97892 -24.862175 1333.7336 11520135 0 -1
44.005135 -18.380369 1335.821 663827 1 0
176.89183 160.86678 1368.1423 8952934 0 -1
260.88391 249.09305 1383.4935 8426590 0 -1
336.66608 -209.01491 1391.9054 8887650 0 -1
167.01543 -21.087519 1364.6924 9348455 0 -1
-322.27664 -173.46867 1278.014 9809010 0 -1
57.142494 295.18124 1348.9976 8755302 0 -1
-21.186714 297.15353 1335.6677 8952421 0 -1
249.15633 279.0871 1381.6355 8360798 0 -1
244.86386 -135.14418 1376.8575 9084769 0 -1
159.1315 -5.2243562 1363.5145 9610346 0 -1
98.715363 286.59927 1355.9041 8952678 0 -1
-81.234596 -201.05504 1319.8964 10005104 0 -1
-115.05773 -1.0186253 1316.1462 15794123 0 -1
-228.92271 184.81174 1298.5989 10203771 0 -1
75.168777 -99.097862 1348.0978 9742958 0 -1
49.325302 -5.3011656 1337.542 1255449 1 0
-239.10979 236.87344 1297.4733 9413743 0 -1
159.23407 -190.99652 1361.6494 9610343 0 -1
-146.91626 163.01585 1312.543 11388296 0 -1
-46.843426 -129.18878 1326.6829 10730367 0 -1
201.67403 -100.58417 1367.9104 5989430 0 -1
306.9921 60.804371 1389.474 8951906 0 -1
104.88057 68.973183 1354.9075 9741933 0 -1
-73.421677 -154.77367 1321.8326 10664573 0 -1
133.76984 75.972847 1360.014 9610346 0 -1
-214.99632 39.042919 1299.2916 14154411 0 -1
74.800255 244.91246 1351.5166 8952422 0 -1
-302.16 39.32753 1284.0132 10994306 0 -1
-291.08899 -166.8864 1283.4282 10203512 0 -1
-62.986641 295.17587 1328.6113 9018472 0 -1
3.1947279 -114.94373 1335.5336 10532471 0 -1
159.10733 184.92648 1365.24 8952677 0 -1
352.71777 49.001572 1396.5352 8750938 0 -1
89.536362 243.44113 1354.0386 8821860 0 -1
269.01099 255.15765 1384.8409 8557664 0 -1
-37.547604 -164.45802 1327.9713 8890217 0 -1
-254.71725 188.83252 1294.1351 10005623 0 -1
286.97943 -19.021788 1385.1708 8952931 0 -1
98.978958 -145.11539 1351.7577 9807467 0 -1
43.347355 -144.7731 1342.1544 9874543 0 -1
-23.010408 213.04068 1334.5911 9544813 0 -1
-232.99203 206.93527 1298.1625 9809012 0 -1
177.00439 -203.14575 1364.6205 9545064 0 -1
260.76401 305.1124 1383.791 8162907 0 -1
-109.02387 -218.97348 1314.7758 9677167 0 -1
-324.93167 -134.87592 1278.1669 10006137 0 -1
-212.87 271.00119 1302.4557 9018986 0 -1
-245.11958 12.982409 1293.5439 12705953 0 -1
-126.89078 170.8109 1316.1055 10928513 0 -1
-187.21767 191.14488 1305.8025 10401915 0 -1
-155.17999 53.016254 1309.6919 15400895 0 -1
329.01434 54.930824 1393.2289 8755040 0 -1
68.843056 249.21216 1350.5076 9018472 0 -1
-122.39699 282.95233 1318.1094 9347181 0 -1
153.32834 161.28212 1364.1055 9346921 0 -1
-112.61735 -33.228909 1316.1517 14415546 0 -1
303.16922 -6.8872604 1388.1542 8952418 0 -1
-8.9839859 302.82132 1337.7916 8756072 0 -1
-268.50186 215.16901 1292.1232 9479792 0 -1
-38.851234 163.12938 1331.1868 10006388 0 -1
-213.06519 -194.91412 1296.8451 10400633 0 -1
-267.10922 -209.02338 1287.1554 9874289 0 -1
117.33965 33.429195 1350.6249 531728 1 0
233.11662 -107.15867 1375.0869 9216102 0 -1
-109.03859 45.111088 1317.7126 14416819 0 -1
-310.91925 104.96024 1283.4633 10335356 0 -1
334.97678 179.132 1395.5327 8491871 0 -1
78.884598 169.19904 1351.4957 9282410 0 -1
-181.02014 -169.01271 1302.6771 11124865 0 -1
-24.986229 78.892799 1332.7085 11125380 0 -1
103.01613 104.92265 1355.0313 9544811 0 -1
49.019756 257.03638 1347.2333 9018984 0 -1
-284.96384 105.07716 1287.8568 11124869 0 -1
93.209122 231.00507 1354.5532 9150057 0 -1
290.92886 -149.16537 1384.7665 9281122 0 -1
102.84727 55.185505 1354.428 9742189 0 -1
112.798 -91.171425 1354.6012 9676652 0 -1
-151.10468 209.192 1312.2804 10137976 0 -1
-105.02429 162.92172 1319.723 10861953 0 -1
276.91159 -156.82126 1382.1664 9281636 0 -1
-84.885185 -89.035301 1320.5604 12507284 0 -1
38.935555 208.95085 1344.8109 9347434 0 -1
215.05673 235.14607 1375.3508 8755043 0 -1
73.360008 -67.249039 1348.0504 10005104 0 -1
-148.84792 101.02632 1311.5129 13428902 0 -1
-142.97041 141.13762 1312.8994 11651725 0 -1
7.052372 -12.838341 1337.3124 11190914 0 -1
-213.12978 -179.09724 1296.8601 10729855 0 -1
-148.23199 -26.633856 1310.0557 15794131 0 -1
14.326813 -72.896347 1337.9512 10926461 0 -1
-121.04379 36.943886 1315.4623 14810811 0 -1
-203.05417 29.120306 1301.1765 15597507 0 -1
-14.782741 -226.19731 1335.3652 1799 0 -1
-133.97951 4.710988 1305.4738 532757 1 0
-318.98169 290.81189 1284.6537 8558181 0 -1
157.06143 -194.8938 1361.3693 9413990 0 -1
290.92194 -93.098083 1385.2059 9084258 0 -1
264.22488 243.01752 1383.8917 8623456 0 -1
89.151642 293.01627 1354.4904 8886886 0 -1
306.97012 157.01086 1390.3781 8689248 0 -1
-129.41238 -13.375186 1304.621 1585701 1 0
245.03001 285.12747 1381.0718 8295007 0 -1
-177.12685 -181.05011 1303.2484 10795389 0 -1
235.87978 -72.287483 1376.0256 9150052 0 -1
303.14795 -190.95154 1386.4427 9216101 0 -1
278.83844 173.04366 1385.5957 8755042 0 -1
-6.8943172 -226.23643 1339.1044 722688 0 -1
-105.16133 -15.049451 1317.5244 14941635 0 -1
195.04054 121.07169 1370.7533 9084261 0 -1
0.79534167 -203.14514 1334.1769 9808237 0 -1
-223.00362 283.0824 1300.9226 8887401 0 -1
165.19466 -167.16286 1362.9185 9741928 0 -1
-10.87231 197.06102 1336.314 9545839 0 -1
70.797569 -182.88263 1346.3884 9414249 0 -1
-53.7225 282.91034 1329.9327 9084522 0 -1
176.4837 -56.860664 1365.8762 9610089 0 -1
255.17175 -94.978371 1378.9451 9084516 0 -1
-17.210135 232.93771 1335.6097 9413485 0 -1
-31.054251 -155.12276 1329.2251 10202994 0 -1
-162.99719 -140.99847 1306.209 11586698 0 -1
-5.0346866 91.182419 1336.335 10926204 0 -1
-248.88942 174.96182 1294.9185 10203769 0 -1
-138.86995 262.78531 1315.0784 9282413 0 -1
-82.87561 -219.09103 1319.3533 9742450 0 -1
204.7119 52.980858 1371.8507 9215844 0 -1
-220.8914 -55.075432 1297.0544 13297819 0 -1
-327.19601 201.16978 1281.8861 9281646 0 -1
-63.028332 -92.852165 1324.2887 11979918 0 -1
-87.024506 292.9361 1324.3584 9018473 0 -1
316.97339 289.02631 1393.4916 8096858 0 -1
-272.91309 157.01979 1290.5168 10138493 0 -1
275.03494 -73.073357 1382.6865 9215587 0 -1
-185.02782 -78.941071 1303.0009 13758384 0 -1
-320.99902 250.83311 1283.6113 8952426 0 -1
-165.57034 -122.96763 1305.9421 12573080 0 -1
-237.12811 131.06952 1296.4382 11389067 0 -1
318.99677 297.10126 1393.838 7965273 0 -1
-331.90494 68.030464 1282.9467 265737 0 -1
-18.75828 -87.069313 1332.109 10927229 0 -1
-293.05942 88.936272 1286.2965 10796417 0 -1
224.81615 -121.06121 1373.5126 9347429 0 -1
-264.86316 280.81497 1293.5424 8624487 0 -1
270.95279 -20.984074 1382.4646 9084004 0 -1
-325.06683 -145.04674 1278.0916 10268022 0 -1
-139.02849 277.08066 1315.2131 9084780 0 -1
318.39902 -82.764603 1389.9192 8952162 0 -1
-234.34277 218.99466 1298.0151 9611378 0 -1
258.98282 -2.7986748 1380.4122 9018213 0 -1
-276.17389 -160.86057 1286.0538 10334585 0 -1
84.815498 -214.98434 1348.4287 9413225 0 -1
-268.95874 -140.91856 1287.6102 10532988 0 -1
145.72331 93.226135 1362.1399 9281641 0 -1
-326.93158 119.10821 1280.9377 10071927 0 -1
-34.824242 -36.817783 1329.7271 12505747 0 -1
129.12848 -161.19597 1356.7926 9807980 0 -1
351.1564 234.87431 1397.6261 7959632 0 -1
186.78206 -68.909676 1367.615 9479016 0 -1
-36.91048 -223.16737 1327.21 9675626 0 -1
263.06223 171.01154 1383.0303 8755041 0 -1
300.93478 44.955524 1388.2762 8820835 0 -1
-285.55637 122.77477 1287.9274 10927235 0 -1
-255.00819 -29.043772 1291.4139 12902817 0 -1
134.8515 -62.878437 1358.8066 9611114 0 -1
-180.36673 -227.21074 1302.2427 5131823 0 -1
228.85376 164.84949 1377.1035 8821090 0 -1
-205.07538 4.9649296 1300.4877 15400646 0 -1
-212.98393 3.0707204 1299.0166 14679484 0 -1
-30.969391 200.9991 1332.9246 9545839 0 -1
-89.166695 257.13409 1323.493 9281899 0 -1
180.46997 -108.38792 1365.9845 9215845 0 -1
197.16753 -37.074978 1363.0953 730644 1 0
-276.95444 -104.83449 1286.5531 10862979 0 -1
-12.9668 103.01398 1335.024 10533244 0 -1
163.7361 187.08682 1366.0625 9084006 0 -1
193.00482 -94.894844 1368.1754 9084261 0 -1
-86.831268 59.109718 1321.765 13166243 0 -1
48.805283 201.10573 1346.4828 9347434 0 -1
288.02325 53.717213 1385.9799 9149028 0 -1
-54.930744 -99.193062 1325.6206 11782537 0 -1
146.33705 -151.39345 1359.8987 9676393 0 -1
272.99548 -160.84718 1381.4785 9281636 0 -1
-220.95258 -126.9643 1296.1154 11848075 0 -1
-86.126282 252.94072 1324.0801 9413487 0 -1
-209.0712 -210.90967 1297.3167 10071414 0 -1
124.91247 62.784149 1358.4156 9545323 0 -1
-184.67744 5.1547251 1304.1039 16515020 0 -1
354.58405 -155.03723 1394.9586 8950114 0 -1
-166.92958 133.1833 1308.7621 12177808 0 -1
-123.01146 220.96054 1317.3002 10070901 0 -1
-66.823509 203.10135 1326.7468 9874291 0 -1
-151.07318 204.83446 1312.3408 10334841 0 -1
-127.04745 -224.85962 1311.427 10004080 0 -1
163.90605 176.7878 1366.0986 9215335 0 -1
216.86113 307.02814 1376.4773 8360542 0 -1
49.010906 255.02534 1347.1953 9215593 0 -1
21.123581 -74.900444 1339.0409 10795130 0 -1
145.1436 160.95287 1362.6796 9281384 0 -1
183.09792 108.8159 1368.6943 9084261 0 -1
-326.92987 150.92908 1281.2844 9611636 0 -1
10.935117 -81.100304 1337.2704 10729597 0 -1
-194.9993 224.9908 1304.9281 9743220 0 -1
156.70621 -141.06432 1361.7332 9610859 0 -1
132.94479 56.936878 1359.6968 9413738 0 -1
-153.28423 31.083265 1309.813 15728591 0 -1
-76.996666 97.09893 1323.8362 12048275 0 -1
299.67789 45.114239 1388.0728 8886626 0 -1
149.1658 -222.08957 1359.5012 2895382 0 -1
41.10323 21.117006 1343.5865 10466425 0 -1
-299.00626 198.90105 1286.5883 9413745 0 -1
-140.86778 174.93524 1313.6653 10862724 0 -1
-183.91118 -181.17664 1301.965 10928254 0 -1
-10.842519 129.00784 1335.5303 10597752 0 -1
-132.52962 87.042656 1314.1176 13430694 0 -1
-114.34857 84.27964 1310.6505 598290 1 0
71.370804 -32.86504 1348.13 10071154 0 -1
278.62512 -213.07251 1381.8951 9413734 0 -1
-213.00421 -68.833069 1298.2982 13624993 0 -1
-299.70367 -165.01782 1281.9603 10073207 0 -1
-115.07573 -51.032883 1315.4558 13561005 0 -1
-203.03394 290.84161 1304.2825 9084011 0 -1
-287.08951 100.99712 1287.5098 10994056 0 -1
-294.97406 70.958923 1285.6995 11125126 0 -1
215.36136 -100.80962 1372.3752 9347172 0 -1
351.29196 235.73145 1395.47 2234900 0 -1
-332.19446 229.16168 1281.9318 8361070 0 -1
-3.2753623 13.213567 1335.8563 11389059 0 -1
145.07715 -139.16211 1359.7825 9610856 0 -1
-241.08038 40.869404 1294.7495 13431465 0 -1
-55.024174 -160.96811 1324.9467 10204026 0 -1
205.43924 -43.096081 1371.5309 8032099 0 -1
181.10713 -54.922745 1366.7922 9544808 0 -1
295.11835 102.87496 1387.7249 8821092 0 -1
257.5921 159.86707 1382.001 8558432 0 -1
-260.59058 99.044029 1292.063 11322248 0 -1
323.54724 246.91986 1394.0477 8294492 0 -1
191.76274 -128.86784 1368.0404 9610856 0 -1
-107.16415 233.06757 1320.2026 9808242 0 -1
49.210518 300.92776 1347.6923 8886885 0 -1
267.08292 -202.84917 1380.1957 9282149 0 -1
-199.05663 107.05341 1302.7761 13426587 0 -1
-32.926281 -97.035278 1329.4039 11320961 0 -1
21.165726 98.79763 1340.8247 10269301 0 -1
229.16112 272.91422 1378.2238 8557664 0 -1
255.43008 -203.07976 1378.1414 9348708 0 -1
73.056076 49.064178 1349.192 9874288 0 -1
344.98315 4.8437657 1395.5791 8558431 0 -1
-303.12189 -12.931005 1283.2496 11586443 0 -1
-168.97241 178.8606 1308.8602 10598526 0 -1
143.66357 132.95392 1362.0732 9281126 0 -1
211.14621 57.149605 1372.8601 9084517 0 -1
24.827766 255.14561 1342.9 9281898 0 -1
-133.00443 -68.81913 1312.3118 14809774 0 -1
277.09595 197.13727 1385.6749 8558177 0 -1
134.45901 26.069572 1358.116 6188619 0 -1
-234.86708 -3.0710664 1295.2372 13955501 0 -1
234.89462 -195.09685 1374.6849 9545063 0 -1
215.07224 267.03207 1375.5566 8557922 0 -1
106.97495 95.115898 1355.6077 9676140 0 -1
-149.01089 88.828682 1311.2883 14348973 0 -1
-139.03137 232.84811 1314.6957 9677429 0 -1
168.90408 135.01852 1366.3912 9018469 0 -1
324.89261 168.93352 1393.601 8426591 0 -1
-134.09726 7.6324272 1315.4999 3100690 0 -1
-240.83623 129.1297 1295.7454 11257481 0 -1
-255.03854 145.00357 1293.5543 10795392 0 -1
-270.79779 -70.933487 1288.095 11716750 0 -1
-81.233482 202.87454 1324.3824 10005621 0 -1
-149.40353 142.84776 1311.8998 11324556 0 -1
-82.418831 27.184143 1322.0645 13890987 0 -1
-311.07825 -152.9706 1280.161 10204535 0 -1
233.47792 -16.933258 1376.0798 9347174 0 -1
-292.97894 -151.15677 1283.2823 10335609 0 -1
-164.98669 -100.95623 1306.3237 13690529 0 -1
104.85594 59.137455 1354.8485 9742701 0 -1
300.95963 136.8004 1388.9971 8689505 0 -1
-12.980387 -80.847557 1333.1335 10664571 0 -1
227.76088 283.1972 1378.0798 8623457 0 -1
-180.92911 46.971104 1305.2079 14745285 0 -1
-67.603516 -42.809093 1323.9138 13231011 0 -1
170.95596 135.06775 1366.7611 8952934 0 -1
207.41676 -113.45174 1371.1431 8886370 0 -1
-96.572594 230.71101 1322.0731 9545326 0 -1
10.948294 -118.94761 1336.8134 10335095 0 -1
-292.87125 -209.07339 1282.5513 9874035 0 -1
170.39569 -166.89694 1363.8324 9413482 0 -1
21.124804 37.060143 1340.1705 10926720 0 -1
-204.17142 272.89667 1304.0028 9085037 0 -1
-84.996986 85.044472 1322.3488 12376474 0 -1
-191.35753 -86.967712 1301.8237 13297573 0 -1
-236.36922 -74.788109 1294.1163 12112271 0 -1
-226.33344 99.247345 1298.0131 12901794 0 -1
-17.116852 119.18852 1334.4543 10729343 0 -1
191.18468 -205.14745 1366.9515 9742442 0 -1
-111.88845 116.4949 1317.9722 11982231 0 -1
-308.99921 12.949942 1282.5605 11059332 0 -1
222.97856 -8.7861023 1374.3053 9281382 0 -1
-177.02679 -198.81357 1303.0305 10269560 0 -1
-262.86563 -11.129561 1290.2485 12705179 0 -1
303.06305 -150.87622 1386.5564 9215587 0 -1
-298.99704 230.98328 1287.0437 9216108 0 -1
-145.12042 174.87071 1312.9419 11320963 0 -1
328.95135 262.82254 1395.1321 8097371 0 -1
-152.94928 -179.045 1307.6713 10729854 0 -1
286.9411 286.84564 1388.3142 8229213 0 -1
50.329105 -85.112389 1343.9242 10006385 0 -1
263.20468 286.94757 1384.0944 8360541 0 -1
241.13739 75.145058 1378.2982 9018213 0 -1
352.20367 91.602417 1393.3376 724224 0 -1
-291.01035 -206.78984 1282.9821 9742705 0 -1
-298.96387 -144.95435 1282.3284 10270073 0 -1
123.90636 254.87929 1360.0608 8952678 0 -1
115.17051 -189.09715 1353.9014 9545064 0 -1
-31.085663 -182.83887 1328.9908 9874031 0 -1
122.17651 73.60585 1357.9497 9676394 0 -1
228.90805 -103.05723 1374.4211 9281126 0 -1
337.71783 195.31464 1396.0188 8360544 0 -1
162.90623 205.12489 1366.1921 9018212 0 -1
-1.1611444 -91.129547 1334.9796 10795133 0 -1
-187.08809 -126.93595 1302.1417 12505492 0 -1
-318.83789 194.92656 1283.1622 9282415 0 -1
-300.98712 -216.99471 1281.1698 9676657 0 -1
101.07745 -182.8954 1351.7661 9741675 0 -1
-333.03561 241.01596 1282.6411 7370071 0 -1
299.02469 203.1219 1389.3873 8557920 0 -1
116.17786 29.867468 1353.0616 203793 0 -1
259.06448 -124.87203 1379.3723 9347173 0 -1
99.638611 66.21489 1354.0253 10070639 0 -1
158.83975 59.118034 1364.1664 9413482 0 -1
-254.96309 97.168533 1292.9067 11782799 0 -1
-108.95022 -31.029419 1316.8884 14876093 0 -1
145.12422 72.891029 1361.8593 9479017 0 -1
-211.00717 272.9874 1302.744 9150060 0 -1
285.08246 114.95527 1386.1656 8755555 0 -1
343.17889 93.071541 1396.1594 8754784 0 -1
253.37366 263.20444 1382.1627 8426079 0 -1
-303.05402 242.92619 1286.5178 9018730 0 -1
-207.05688 40.955776 1300.5693 14876094 0 -1
100.94421 -138.94348 1352.2451 9545323 0 -1
222.28958 -36.754616 1373.8845 9215845 0 -1
60.912434 254.94214 1349.1558 8887143 0 -1
203.47273 105.19184 1372.1245 8952933 0 -1
-217.91133 147.0137 1299.9875 10993285 0 -1
80.494385 -203.01295 1347.8528 9479531 0 -1
128.80536 -187.08159 1356.3445 9413990 0 -1
-185.05786 202.87375 1306.4121 10204026 0 -1
-151.09265 154.99817 1311.6908 11520911 0 -1
206.89548 -162.85551 1370.177 9413477 0 -1
184.78607 -90.788116 1367.0386 9413479 0 -1
-36.82655 37.083103 1330.2 12505491 0 -1
-187.03268 265.14777 1306.8298 9413230 0 -1
219.73381 209.07855 1376.0454 8558690 0 -1
-26.955528 229.24603 1333.8958 9479278 0 -1
349.0127 203.35097 1397.9047 8228186 0 -1
-257.05392 -226.85957 1288.5717 9479535 0 -1
271.8172 -73.024162 1382.0488 9215843 0 -1
-242.25717 -230.23242 1299.7732 788480 0 -1
210.95712 -66.843483 1372.1942 8426597 0 -1
353.23428 42.781975 1395.2969 2567456 0 -1
337.54324 -11.136779 1394.0867 8820834 0 -1
149.06564 41.00103 1362.235 9479017 0 -1
88.917328 -105.06586 1350.4572 9807979 0 -1
-25.967068 17.079924 1331.9768 12636820 0 -1
221.10822 -110.93855 1372.9984 9282406 0 -1
225.03728 260.87823 1377.3378 8492641 0 -1
21.12464 -79.021873 1338.9521 10729338 0 -1
251.81342 46.551888 1380.0253 8755554 0 -1
-86.917046 163.0294 1322.9214 10795392 0 -1
-60.389404 213.07184 1328.057 9939829 0 -1
-242.84708 94.86972 1295.0795 12375703 0 -1
260.97003 -162.94353 1379.3292 9150822 0 -1
171.69806 -180.13432 1364.0264 10003817 0 -1
222.85129 -197.20282 1372.6052 9545062 0 -1
80.801147 247.1335 1352.5161 9149800 0 -1
-304.97202 136.96294 1284.8773 10400377 0 -1
-88.998337 -134.8201 1319.1743 11060099 0 -1
-205.12492 105.10336 1301.7275 12771999 0 -1
270.96524 -89.121025 1381.7322 9149797 0 -1
-97.140282 -38.948208 1318.8263 14480044 0 -1
227.01735 30.788153 1375.5394 9150309 0 -1
229.03224 -52.89378 1375.1021 9413223 0 -1
86.884178 -75.133026 1350.4666 10070640 0 -1
112.95958 91.004723 1356.524 9413994 0 -1
-313.54965 32.774948 1281.9531 10926980 0 -1
-128.86205 -110.8416 1312.5469 13033115 0 -1
-230.98039 295.16229 1299.4521 8821609 0 -1
264.49402 47.16164 1381.9725 8755809 0 -1
-298.35229 -22.86607 1284.0558 11389322 0 -1
180.84 56.983318 1367.863 9347688 0 -1
-63.185223 -130.94475 1323.8469 10861435 0 -1
-250.99974 205.00914 1295.0029 9480308 0 -1
-242.85979 27.155241 1294.1829 13887656 0 -1
-179.23975 -97.029625 1303.8151 12838300 0 -1
-110.95701 57.05357 1317.4915 14219696 0 -1
-229.95929 -0.23786752 1295.9604 15005375 0 -1
210.99715 67.2117 1372.9662 9150053 0 -1
-15.175303 -176.84686 1331.7169 9874286 0 -1
-297.06693 294.95285 1288.2755 8558181 0 -1
-304.94101 -167.04034 1281.0685 10137977 0 -1
-67.680161 -219.5323 1321.9481 9741934 0 -1
228.92331 -105.06953 1374.4348 9215588 0 -1
292.22147 -35.139992 1385.9359 9083748 0 -1
-267.37662 189.2733 1291.9171 9940600 0 -1
-204.80168 -19.171278 1300.2168 15597246 0 -1
69.143272 -115.03356 1346.9479 9742702 0 -1
-293.05307 175.03561 1287.4094 9742966 0 -1
-179.20923 -198.9317 1302.7808 10334838 0 -1
-171.42839 -41.05275 1305.8958 15138759 0 -1
165.20398 -61.093636 1364.0468 9413736 0 -1
55.156021 180.97142 1347.4977 9479276 0 -1
-288.63217 -143.06993 1284.1699 10598012 0 -1
-20.785875 -48.804428 1332.1289 11256964 0 -1
122.80945 -82.944519 1356.48 9807723 0 -1
-246.96848 135.0405 1294.7474 11059846 0 -1
-212.99898 291.16205 1302.7639 8953194 0 -1
-15.18176 -190.99966 1331.5728 9874032 0 -1
-198.98477 -13.026251 1301.3453 15335359 0 -1
-218.95735 241.07758 1300.9528 9414513 0 -1
-44.969296 205.09143 1330.6113 9874034 0 -1
-131.17546 -4.7879572 1315.0063 9349236 0 -1
-205.04779 -22.958378 1300.2257 15269560 0 -1
-99.155487 175.15079 1320.9028 10466429 0 -1
187.86346 153.33138 1370.0547 9018213 0 -1
-183.02449 193.16002 1306.683 10270331 0 -1
322.9697 -109.02724 1390.5398 8952674 0 -1
254.89055 66.864182 1380.6049 8887140 0 -1
-183.14836 107.18451 1305.5934 13230758 0 -1
-98.827408 273.26157 1322.1061 9018985 0 -1
-257.02762 -131.0573 1289.8093 10927488 0 -1
63.215889 59.009918 1347.6934 10005616 0 -1
310.9758 201.02348 1391.5488 8426592 0 -1
-120.89071 -210.91872 1312.7888 9940595 0 -1
49.322807 -48.987827 1344.0829 10268788 0 -1
-208.98111 -22.947535 1299.3743 14022833 0 -1
-45.004848 -179.1163 1326.5068 10137201 0 -1
309.83026 277.06134 1392.0999 8228700 0 -1
-298.48203 -176.86409 1282.0477 10137461 0 -1
-327.09302 232.93076 1282.4236 8952682 0 -1
159.26047 53.214947 1364.057 9281639 0 -1
330.85541 87.057167 1393.7925 8623713 0 -1
316.99777 -211.05421 1388.5776 9150563 0 -1
-161.10625 175.16933 1310.2832 10926979 0 -1
-196.84233 50.950638 1302.5223 14351288 0 -1
304.93073 2.8421319 1388.5642 8886882 0 -1
-141.11859 -118.83267 1310.2972 12637850 0 -1
354.37769 -104.98367 1394.8473 7699547 0 -1
154.86855 221.10745 1364.8641 8821350 0 -1
-41.262283 -124.98599 1327.7469 10861181 0 -1
306.47205 310.92325 1391.9103 7899480 0 -1
110.84759 -108.87198 1354.1587 9807724 0 -1
316.97858 -190.94002 1388.7174 9084515 0 -1
-17.11418 -192.89674 1331.1469 9742958 0 -1
-89.384293 -57.08392 1319.9551 13297055 0 -1
52.83461 -28.980305 1345.0208 10202740 0 -1
350.93469 -203.12639 1394.4518 8755551 0 -1
260.84323 -22.958916 1380.6643 9150053 0 -1
126.92864 -216.91707 1355.7203 9282663 0 -1
78.964386 187.06485 1351.5931 9281384 0 -1
-244.28195 -136.85973 1292.0146 11124607 0 -1
175.24249 77.051605 1367.0535 9216359 0 -1
-71.057487 94.908981 1324.8322 11850387 0 -1
-64.970932 -219.03862 1322.4739 9414251 0 -1
272.89328 69.009346 1383.657 8821091 0 -1
284.86707 -6.8632689 1385.0154 9018467 0 -1
260.99896 -133.02811 1379.7201 9281635 0 -1
114.84859 -110.90503 1354.725 9742444 0 -1
323.06451 191.11292 1393.4193 8492384 0 -1
287.05029 143.09633 1386.8612 8755042 0 -1
95.095688 123.03598 1353.7026 9413482 0 -1
333.05084 183.13016 1395.1561 8491871 0 -1
179.06485 223.05331 1369.1624 8690274 0 -1
147.15451 157.01324 1363.0623 9281384 0 -1
111.41474 272.9704 1358.0704 8886884 0 -1
203.0509 -135.11818 1369.6709 9413222 0 -1
129.18333 -222.70488 1356.6362 1580813 0 -1
177.08694 -181.049 1364.9059 9479270 0 -1
305.0947 278.81531 1391.2256 8294235 0 -1
-190.81535 99.014122 1304.1652 13624738 0 -1
53.184612 299.09421 1348.4713 8755557 0 -1
-10.833262 100.81068 1335.2957 10730365 0 -1
46.999023 50.832836 1344.8654 10138226 0 -1
-168.30269 95.129639 1308.043 12839077 0 -1
225.02309 58.851231 1375.2887 9150053 0 -1
255.56183 213.1319 1382.0813 8623453 0 -1
7.0989952 157.19356 1338.9789 9808241 0 -1
-172.99524 -150.98648 1304.3394 11323527 0 -1
316.85794 -91.017014 1389.623 8887140 0 -1
-286.3558 289.17838 1290.0637 8689512 0 -1
-298.9501 74.959633 1285.0192 10992514 0 -1
31.148674 224.92755 1343.6823 9281644 0 -1
29.672375 76.97451 1342.0291 10202226 0 -1
231.10548 36.994293 1376.0905 9149796 0 -1
208.75764 -14.90189 1371.7267 9281382 0 -1
217.01416 256.83456 1375.8448 8689249 0 -1
208.99104 11.206297 1372.2762 9281638 0 -1
46.985161 -88.807419 1343.3187 10072180 0 -1
224.93765 -137.17104 1373.4845 9478759 0 -1
-213.07243 254.84993 1302.2239 9282414 0 -1
37.203503 -82.852097 1341.7858 10334324 0 -1
332.8288 255.27718 1395.8333 8096858 0 -1
171.03357 260.94797 1368.1733 8689762 0 -1
176.72403 148.9986 1367.9331 9215335 0 -1
-272.94675 142.99947 1290.4982 10467456 0 -1
-158.56284 -215.006 1306.0918 10071415 0 -1
-173.0183 261.03278 1309.2136 9216877 0 -1
310.98636 231.11723 1391.7365 8557920 0 -1
154.81018 80.953896 1363.652 9216102 0 -1
36.792614 -155.01852 1340.7761 9808493 0 -1
102.84153 53.219505 1354.3972 9807982 0 -1
72.826889 25.540548 1348.7711 9017453 0 -1
-211.00639 157.15114 1301.3276 11321733 0 -1
269.01736 169.13243 1383.822 8623713 0 -1
-222.95709 146.91415 1299.1383 10994309 0 -1
-268.9173 268.98224 1292.723 8821866 0 -1
-140.86296 -138.87183 1310.157 11849612 0 -1
257.70621 -29.09799 1380.0967 9084261 0 -1
303.15109 -212.88837 1386.1302 9281892 0 -1
-244.92123 -184.9176 1291.272 10334841 0 -1
74.762947 133.00775 1350.3569 9610348 0 -1
315.33353 -217.07655 1388.1157 9281637 0 -1
114.86323 -220.9924 1353.6115 9740650 0 -1
350.84341 141.01331 1397.6029 8491358 0 -1
-187.11436 139.12048 1305.2516 12243091 0 -1
284.95444 149.16457 1386.4438 8755297 0 -1
198.96526 -206.94229 1368.2595 9611112 0 -1
-167.13832 -225.00256 1304.3811 9545324 0 -1
-206.63029 149.15849 1302.119 11060617 0 -1
-156.84866 294.90347 1312.2664 8887402 0 -1
100.8428 46.823246 1354.1255 9677165 0 -1
-117.56494 192.31758 1317.9673 10859648 0 -1
-192.26787 -67.764252 1302.035 13959087 0 -1
-112.21958 82.726059 1309.8225 2441265 1 0
146.79935 177.02652 1363.1107 9150055 0 -1
-176.17923 298.01596 1309.1069 8821865 0 -1
-131.00104 -213.17302 1310.9861 10005621 0 -1
-174.89859 -120.86705 1304.3666 12179350 0 -1
224.70453 121.21909 1375.882 9017955 0 -1
-171.22231 -39.087418 1305.8452 14876357 0 -1
209.02559 -134.76762 1370.7692 9413736 0 -1
140.95041 -87.144791 1359.5415 9872492 0 -1
-18.950878 -69.127518 1332.1383 11256195 0 -1
-230.86057 -115.13634 1294.5138 11389321 0 -1
344.95761 -13.094222 1395.4552 8558175 0 -1
-106.87857 57.18713 1318.2013 14480817 0 -1
170.77582 107.09172 1366.6315 9215333 0 -1
-66.882088 65.001991 1325.2643 12441499 0 -1
112.95258 88.78511 1356.5217 9347946 0 -1
-87.089165 -201.02242 1318.8623 10071156 0 -1
-214.96799 -101.03575 1297.5419 12899989 0 -1
-307.14389 86.933357 1283.8209 10664321 0 -1
193.04237 180.9581 1371.0728 8952420 0 -1
-30.809439 131.2653 1332.1011 10137471 0 -1
279.03711 -79.198967 1383.1798 9149538 0 -1
-292.89969 -30.826588 1284.8204 11915151 0 -1
294.63409 -95.375389 1385.9257 9084003 0 -1
169.00096 -196.84279 1363.3303 9413481 0 -1
-144.93016 -214.81703 1308.4597 10005876 0 -1
-319.08737 35.064716 1281.0754 10467966 0 -1
-176.90678 233.07585 1308.2102 9546098 0 -1
330.92279 50.859356 1393.6002 8820833 0 -1
-27.159683 -7.0031128 1331.496 12177553 0 -1
319.14453 -164.80515 1389.4779 9084257 0 -1
-268.90555 30.892292 1289.6754 12310934 0 -1
81.338776 -12.793694 1350.0806 9940338 0 -1
122.8551 -210.78432 1355.1118 9413735 0 -1
32.98402 167.08745 1343.4873 9611120 0 -1
-24.806288 90.956764 1332.9065 10994304 0 -1
211.05934 11.210065 1372.5774 9215846 0 -1
-197.35014 -163.05484 1299.8367 11322245 0 -1
176.86081 150.81567 1367.9163 9149541 0 -1
210.97702 303.03995 1375.2755 8492129 0 -1
204.74072 37.213264 1371.8002 9150310 0 -1
-62.596359 63.11433 1326.0989 12244370 0 -1
-307.12625 -118.89981 1281.2913 10467197 0 -1
354.78986 -208.93686 1394.676 8818780 0 -1
-45.212933 -224.48274 1325.8768 8687720 0 -1
-52.9888 -24.979935 1326.8007 13427361 0 -1
-94.318726 -165.09348 1318.0515 10795390 0 -1
-25.021332 -118.89494 1330.7249 10533500 0 -1
-143.26447 -118.97713 1309.8855 12639126 0 -1
-280.86069 -8.9447594 1287.1984 12244631 0 -1
163.17859 270.83224 1366.9607 8755554 0 -1
-192.8983 263.04956 1305.7128 9216364 0 -1
-168.92027 280.86429 1310.1296 9084524 0 -1
-146.70958 -48.772667 1310.1284 15794115 0 -1
12.979706 199.14651 1340.4069 9610863 0 -1
-269.06656 108.96165 1290.6777 11257481 0 -1
-332.10739 83.029045 1283.193 857610 0 -1
303.06464 -139.16592 1386.8871 9084260 0 -1
-228.84683 -173.23828 1294.1666 10598268 0 -1
-324.86575 215.0546 1282.4386 8953195 0 -1
-246.05658 59.300827 1294.0298 13165464 0 -1
261.14926 -180.81683 1379.4073 9282662 0 -1
107.23417 -35.107777 1354.2534 9939053 0 -1
-168.93259 -147.16893 1305.0339 11717262 0 -1
-44.914223 53.121433 1328.9746 12047506 0 -1
268.02145 -13.653985 1381.9962 8821859 0 -1
-311.43149 152.92529 1283.9165 9808499 0 -1
-148.97275 13.064629 1310.3544 16056275 0 -1
2.6841543 138.88872 1337.9414 9478766 0 -1
-271.09357 163.06447 1290.9791 10138236 0 -1
-36.27626 138.07333 1327.3087 1654049 0 -1
-257.65698 218.79013 1293.9406 9414772 0 -1
-79.14695 -27.057928 1322.1591 13232804 0 -1
-7.5853081 293.29092 1337.915 8886887 0 -1
224.96255 88.991936 1375.6254 9149796 0 -1
-293.00208 16.960264 1285.3737 11717264 0 -1
307.00803 296.86911 1391.7334 8096858 0 -1
-177.03247 -34.866333 1304.9456 15335101 0 -1
-79.100349 -226.31061 1320.5634 723456 0 -1
136.77534 124.84571 1360.829 9413224 0 -1
-202.86798 -106.82092 1299.5858 12508062 0 -1
352.79807 -17.268421 1396.358 8622431 0 -1
-222.961 255.14961 1300.4657 9216364 0 -1
-156.035 84.241386 1310.0111 14417060 0 -1
33.128132 228.98698 1344.1571 9084778 0 -1
-148.98108 19.009342 1310.386 16187343 0 -1
334.9769 43.216564 1394.1904 8624225 0 -1
157.09505 -15.116501 1363.1082 9282665 0 -1
-113.0917 276.89563 1319.7109 9150571 0 -1
-63.807079 74.890862 1325.9918 12113553 0 -1
-71.185158 -135.0874 1322.3363 10730879 0 -1
211.03569 -160.96011 1370.884 9413221 0 -1
-71.458527 197.32419 1325.9272 10268277 0 -1
260.95889 131.19186 1382.2607 8755298 0 -1
282.88037 253.15152 1387.0731 8360542 0 -1
147.15007 -211.11728 1359.2637 9545065 0 -1
25.021399 -87.085861 1339.6802 10531960 0 -1
-29.138081 -162.92496 1329.4436 9874800 0 -1
206.89899 309.07397 1374.7355 8360544 0 -1
31.004593 157.19647 1343.0015 9742446 0 -1
-107.03009 274.96805 1320.7278 9150316 0 -1
181.18126 35.009941 1367.6825 9281895 0 -1
-61.108662 -75.097595 1324.8647 11981458 0 -1
-286.97632 214.9482 1288.8981 9545328 0 -1
268.90475 -205.0161 1380.3666 9413991 0 -1
247.17126 -208.89699 1376.605 9413733 0 -1
-3.8322783 250.95959 1337.9971 9609322 0 -1
99.043938 -162.89226 1351.5542 9741930 0 -1
-71.019241 103.00215 1325.0345 11718287 0 -1
-72.978539 -28.992975 1323.2592 12904612 0 -1
-92.931259 32.975952 1320.3035 13758892 0 -1
-277.02948 -80.970558 1286.9327 11389062 0 -1
-13.387292 -17.089296 1333.8068 11586445 0 -1
-31.029383 62.858509 1331.4838 11979913 0 -1
339.09283 222.98849 1396.4819 8294492 0 -1
-263.1409 242.81406 1293.312 9150572 0 -1
209.19028 136.98776 1373.3464 9017956 0 -1
311.09338 -121.03007 1388.4247 9018466 0 -1
216.84029 167.03209 1375.1418 8952163 0 -1
-191.14412 110.9409 1304.2856 12902301 0 -1
158.875 217.16219 1365.5503 8886884 0 -1
-120.94878 168.95697 1317.0149 11058307 0 -1
168.86601 -75.148254 1364.5123 9545066 0 -1
227.14702 155.15103 1376.609 8886883 0 -1
-163.12692 1.109548 1307.8417 16318407 0 -1
255.04517 -30.991938 1379.739 9084003 0 -1
186.95552 233.03827 1370.6405 8755298 0 -1
17.507612 85.124779 1340.1666 10401143 0 -1
249.34256 306.87396 1382.0785 8294751 0 -1
-274.10275 283.60617 1292.0215 8558953 0 -1
287.595 254.76289 1388.0709 8491870 0 -1
13.694165 -221.17632 1336.0773 9413740 0 -1
237.13992 146.80334 1378.1693 8821603 0 -1
-152.89343 66.847107 1310.2877 15531703 0 -1
146.87709 226.97351 1363.6716 9018213 0 -1
187.08035 279.11407 1371.0465 8558433 0 -1
80.590858 -205.01823 1347.8783 9282151 0 -1
-24.982281 228.94614 1334.2299 9348205 0 -1
-278.98315 136.95592 1289.2264 10532739 0 -1
-197.19887 -169.0558 1299.7975 10927492 0 -1
-57.222778 -224.77119 1323.7909 8815958 0 -1
-182.95567 -88.925087 1303.2767 13166492 0 -1
-59.183617 -37.192669 1325.5459 13362072 0 -1
99.604134 287.02692 1356.0962 9018215 0 -1
350.99503 -42.86734 1396.0831 8623711 0 -1
-281.05508 97.043129 1288.5082 11124867 0 -1
148.78276 -146.78825 1360.3359 9676395 0 -1
104.916 -128.97221 1352.9969 9676906 0 -1
222.85483 -139.12865 1373.0741 9282148 0 -1
-266.85657 118.95667 1291.2269 11191434 0 -1
-255.05984 260.95581 1295.0283 9150317 0 -1
-82.994011 126.97755 1323.1511 11585676 0 -1
259.06226 -120.83591 1379.542 9215843 0 -1
38.863098 -211.10133 1340.6852 9479275 0 -1
9.0696192 191.16696 1339.7667 9742448 0 -1
-245.05759 166.86462 1295.5963 10598270 0 -1
223.11464 169.06808 1376.1741 8755811 0 -1
-188.95157 -29.147888 1302.9722 16187337 0 -1
-179.06575 -191.08263 1302.6884 10597754 0 -1
86.788261 -209.11058 1348.9755 9478761 0 -1
-74.878685 -42.874104 1322.7567 13756574 0 -1
-10.836012 111.00518 1335.3274 10532474 0 -1
-246.92992 -54.977787 1292.4436 13227160 0 -1
-262.7103 130.95337 1292.1337 10862469 0 -1
87.141151 -174.94336 1349.4108 9544810 0 -1
121.08673 -95.174675 1356.1219 9741931 0 -1
316.9946 230.86922 1392.7778 8360542 0 -1
142.79834 283.18854 1363.5333 8952164 0 -1
-212.93213 181.15376 1301.2791 10532991 0 -1
-129.13391 186.99509 1315.8048 10597755 0 -1
83.158417 -172.86127 1348.7412 9348456 0 -1
-329.05682 280.91367 1282.8032 8426596 0 -1
-197.09264 -26.994213 1301.3927 14876607 0 -1
-53.148647 -178.94731 1325.1093 10268535 0 -1
95.62796 146.88298 1354.139 9282153 0 -1
312.95987 -62.915436 1389.3174 9018210 0 -1
309.03928 168.90967 1390.7809 8492640 0 -1
-41.052269 -67.085983 1328.3175 11717005 0 -1
-139.04146 117.15945 1313.2749 12179607 0 -1
155.13304 44.954166 1363.3545 9413226 0 -1
298.87729 -0.78868908 1387.5511 8952419 0 -1
80.910851 -53.049068 1349.5427 9874031 0 -1
259.0961 -128.92256 1379.3529 9281893 0 -1
215.0061 276.86954 1375.8363 8557663 0 -1
-89.291077 284.99039 1323.9004 9018473 0 -1
-208.8456 103.16888 1301.0417 13362599 0 -1
153.21793 -119.05848 1361.3394 9479529 0 -1
-95.024658 -11.007528 1319.6407 14875574 0 -1
31.247112 -134.78033 1340.1145 10136688 0 -1
-122.3325 64.250328 1312.7963 860436 0 -1
45.329449 -174.89838 1342.1335 9807724 0 -1
283.12314 -131.04756 1383.5323 9281637 0 -1
-237.18065 81.086342 1295.8544 12639134 0 -1
-38.893238 57.082203 1330.1069 11980946 0 -1
56.778984 25.059917 1346.2086 10006387 0 -1
326.52283 185.53885 1393.9412 8360543 0 -1
282.70615 -69.229782 1383.8937 9084258 0 -1
8.4261875 19.249699 1337.9237 10862720 0 -1
215.41154 -126.81509 1372.0765 9610342 0 -1
122.296 80.859741 1357.9542 9544810 0 -1
78.928886 -47.168583 1349.2607 9939309 0 -1
-57.372318 123.89917 1328.566 6057544 0 -1
-266.84494 -187.05623 1287.4408 10072180 0 -1
-25.017508 45.04594 1332.4056 11586185 0 -1
176.96613 -21.121861 1366.2719 9347688 0 -1
-58.837204 123.22533 1328.3241 6516297 0 -1
62.981743 158.911 1348.6263 9413483 0 -1
236.80135 -91.219986 1375.8755 9478503 0 -1
-320.94681 -178.93744 1278.1726 9808497 0 -1
158.46301 12.499867 1362.9054 8685156 0 -1
46.920078 -52.973774 1343.6499 10137457 0 -1
-203.00793 14.909224 1301.0052 14942144 0 -1
168.96562 240.95361 1367.5587 8886627 0 -1
343.03644 -57.147507 1394.6234 8820576 0 -1
-114.8159 172.93799 1318.1582 11058306 0 -1
109.23917 -7.1443291 1354.9342 9742958 0 -1
184.16209 -196.85864 1365.9678 9610857 0 -1
-52.996307 -216.91312 1324.6693 9676654 0 -1
-323.08371 -11.036799 1279.8568 10927232 0 -1
-72.580894 -144.96005 1322.0879 10465654 0 -1
-222.9778 158.9487 1299.3485 10795647 0 -1
-71.165642 -123.05479 1322.5476 10928514 0 -1
16.988489 6.9986792 1339.2056 10993279 0 -1
-15.145499 -17.14049 1333.4587 11586439 0 -1
-227.09996 -175.10162 1294.4641 10400890 0 -1
173.15182 151.16814 1367.3735 9149799 0 -1
-10.830496 91.106415 1335.2004 10992509 0 -1
268.98843 293.17538 1385.2212 8425821 0 -1
92.808372 -3.2091203 1352.1827 9939822 0 -1
289.10712 286.95911 1388.6693 8228700 0 -1
49.663548 -68.383224 1344.0447 10334837 0 -1
72.994492 -36.873116 1348.2791 9808494 0 -1
41.03989 239.20738 1345.5515 9215849 0 -1
-268.72809 59.108242 1290.0671 11652238 0 -1
-261.56927 100.83397 1291.8972 11256964 0 -1
194.95499 -159.00034 1368.2003 9545063 0 -1
-210.96382 105.05901 1300.6979 12705184 0 -1
-254.8969 277.06058 1295.1721 8887145 0 -1
120.99737 243.09769 1359.3214 9083493 0 -1
-266.87662 208.96577 1292.2905 9545587 0 -1
-92.771675 145.12578 1321.5818 10731651 0 -1
4.4078574 107.57719 1337.9978 10269304 0 -1
-12.977434 -33.059227 1333.5323 11454088 0 -1
169.6584 274.43738 1368.0013 8361568 0 -1
3.1903195 -93.116119 1335.6643 10598264 0 -1
-104.09541 165.61188 1320.0001 11058561 0 -1
151.02942 -88.845764 1361.1918 9610859 0 -1
-295.05191 -76.969315 1283.8269 11125636 0 -1
320.94626 -91.092094 1390.3424 8952418 0 -1
239.16708 148.89265 1378.5846 8623970 0 -1
92.904648 59.030727 1352.8615 9808238 0 -1
