VERSION .7
FIELDS x y z rgb label object
SIZE 4 4 4 4 4 4
TYPE F F F U U I
COUNT 1 1 1 1 1 1
WIDTH 1088
HEIGHT 1
POINTS 1088
VIEWPOINT 0 0 0 1 0 0 0
DATA ascii
47.685421 -23.121233 1344.0613 10334325 0 -1
-275.00107 -142.99448 1286.4437 10401147 0 -1
-117.18168 -143.07101 1314.1925 11389061 0 -1
-260.9928 -140.93954 1288.9371 10729340 0 -1
89.092133 115.03639 1352.6454 9479532 0 -1
2.9866023 -218.91019 1334.3369 9676141 0 -1
19.024796 101.1524 1340.5413 10138231 0 -1
-150.88898 26.856733 1310.2565 16515029 0 -1
-183.03203 90.964684 1305.3809 13561768 0 -1
-7.4369922 -87.184158 1333.9098 10533498 0 -1
-288.2088 -161.63586 1284.0273 10466678 0 -1
-206.9832 -220.90855 1297.4255 9808243 0 -1
262.66434 268.92609 1383.8853 8491613 0 -1
-195.46936 151.08119 1303.8934 11257997 0 -1
-54.993935 249.17792 1329.2672 9281899 0 -1
277.60818 243.16994 1386.0219 8557663 0 -1
-84.886658 254.90608 1324.1484 9281644 0 -1
65.18042 305.17548 1350.5079 8755044 0 -1
-151.06029 248.98654 1312.7722 9545072 0 -1
190.86064 -55.013367 1368.3745 9281896 0 -1
36.323357 163.05132 1343.9491 9676399 0 -1
239.37798 -124.8224 1376.0673 9347429 0 -1
275.07327 166.88428 1384.8961 8492640 0 -1
156.12553 88.922211 1363.9863 9018983 0 -1
-36.983341 -60.862743 1329.1151 12112016 0 -1
-174.74829 -126.99665 1304.1929 11850899 0 -1
-138.96992 201.15959 1314.355 10269306 0 -1
304.96161 -184.85217 1386.7856 9150051 0 -1
-288.9458 -52.960796 1285.1229 11059847 0 -1
-37.086281 234.86865 1332.337 9347950 0 -1
-89.484924 126.72046 1321.9204 11783307 0 -1
290.86115 -69.095581 1385.328 9084259 0 -1
199.66429 -45.238037 1370.0452 9282150 0 -1
-259.36856 -85.209755 1289.9128 11651205 0 -1
84.868187 -25.208765 1350.627 9677934 0 -1
342.90924 306.99841 1398.1697 7439188 0 -1
335.05573 294.83679 1396.7251 7702359 0 -1
-186.86926 45.021297 1304.1064 15400904 0 -1
333.11273 -22.775826 1393.2501 8623967 0 -1
177.95998 144.00618 1368.0529 8952677 0 -1
202.98384 -8.7549238 1370.9489 9150566 0 -1
296.28705 304.41449 1389.9989 7900249 0 -1
-300.98886 147.03696 1285.6118 10006392 0 -1
-180.92509 214.99731 1307.2844 9677429 0 -1
-77.068565 239.19775 1325.3652 9347950 0 -1
120.9009 168.78221 1358.5001 9150313 0 -1
37.013939 -54.399078 1335.1309 795155 1 0
-26.10634 -45.683025 1314.7537 794380 1 0
-196.83437 -185.07814 1299.7626 10794877 0 -1
-19.010912 54.977966 1333.4957 11256711 0 -1
-204.82791 -191.17982 1298.203 10270072 0 -1
218.98003 293.12238 1376.7181 8426336 0 -1
285.1037 -214.88445 1383.0441 9216612 0 -1
-127.06976 186.95612 1316.2284 10204283 0 -1
-10.925906 291.0032 1337.3754 8886887 0 -1
-105.16187 145.01891 1319.4749 11257227 0 -1
-41.048904 -62.993675 1328.3011 11782797 0 -1
342.92853 -133.12148 1393.8511 8755552 0 -1
-107.10252 18.842882 1317.808 15269813 0 -1
14.144382 142.38805 1339.9944 9809522 0 -1
-268.88724 245.12035 1292.3665 9215596 0 -1
-29.147291 108.81561 1332.1489 10730367 0 -1
224.82774 253.06067 1377.0695 8492384 0 -1
-250.95284 -80.937759 1291.4661 11454602 0 -1
-62.819683 156.8383 1326.928 10729083 0 -1
120.75725 9.0703869 1356.9857 9676652 0 -1
-74.946968 54.859673 1323.6831 13099166 0 -1
347.16525 55.134602 1396.3865 8492127 0 -1
-289.07181 0.88725877 1285.8151 11784340 0 -1
-98.938324 -194.94965 1316.7941 9940596 0 -1
99.173187 140.9279 1354.6216 9479020 0 -1
175.11188 -11.135666 1366.1389 9281896 0 -1
62.829601 -161.00589 1345.2205 9413227 0 -1
-224.57455 89.136772 1298.0944 12639905 0 -1
323.00885 221.04662 1393.6251 8294493 0 -1
-246.95654 -152.98093 1291.2982 10401660 0 -1
-160.65022 -187.12291 1306.058 10334584 0 -1
202.99078 -43.16386 1370.6613 9347175 0 -1
-187.10555 67.142189 1304.3916 14154164 0 -1
-149.78624 158.63075 1311.9629 11257225 0 -1
-266.94928 4.9538794 1289.7134 12573850 0 -1
29.082169 176.84175 1342.8484 9610862 0 -1
26.38884 -70.501549 1339.9364 10203768 0 -1
-69.070023 269.12378 1327.2355 8887657 0 -1
-136.84389 294.94388 1315.7289 8952937 0 -1
229.28828 275.07309 1378.1647 8492128 0 -1
100.99803 100.93856 1354.5774 9676139 0 -1
177.15881 56.862579 1367.1981 9216102 0 -1
-283.01868 -123.00124 1285.3035 10861184 0 -1
-16.974199 -104.9002 1332.158 10795642 0 -1
181.14279 179.0761 1369.0674 8886884 0 -1
136.86893 138.7861 1361.0375 9150054 0 -1
16.992451 -60.805206 1338.5594 10729340 0 -1
325.13251 -164.99103 1390.4241 9018210 0 -1
-211.08765 -122.88781 1297.8146 12046742 0 -1
247.19054 28.887133 1378.7659 8886882 0 -1
242.98904 -162.91028 1376.3103 9282149 0 -1
-306.9711 226.87384 1285.5903 9019244 0 -1
-251.47037 -186.62685 1289.9612 10006389 0 -1
257.93185 -38.309845 1380.0114 9084260 0 -1
-314.90558 126.98225 1282.9652 10137721 0 -1
-274.39056 136.62108 1290.0364 10468481 0 -1
-70.374855 7.1692047 1324.0441 14020275 0 -1
-42.967487 8.8719215 1328.8187 12441745 0 -1
-136.73218 161.12233 1314.1021 11059586 0 -1
-30.839985 258.80859 1333.4236 8887912 0 -1
-297.03983 146.83324 1286.3561 9941112 0 -1
209.17621 288.98416 1374.9618 8492129 0 -1
-219.00887 -50.822746 1297.3444 13493921 0 -1
-33.156719 208.80388 1332.5699 9741935 0 -1
95.204971 294.80911 1355.5276 8821349 0 -1
23.183193 157.04236 1341.7704 9742449 0 -1
311.37595 -157.10612 1388.1017 9084516 0 -1
-7.0038362 40.865955 1335.4664 11387525 0 -1
-28.965448 288.84192 1334.2085 8756072 0 -1
-80.996346 99.030655 1323.1555 11784338 0 -1
335.05557 184.8299 1395.5092 8425821 0 -1
63.162521 -69.001671 1346.2889 10071664 0 -1
-112.87736 65.178726 1317.3351 13759665 0 -1
-311.80383 -152.90939 1279.9597 9941365 0 -1
84.964767 158.97342 1352.2372 9216362 0 -1
-328.3728 11.065997 1279.6573 10792829 0 -1
333.07327 79.072372 1394.2521 8755041 0 -1
210.80646 75.231628 1373.1537 9084517 0 -1
-260.95581 238.96223 1293.6366 9216109 0 -1
-50.909824 252.77522 1330.0775 9150827 0 -1
198.87123 75.067902 1371.0557 9084262 0 -1
216.87755 305.00201 1376.4667 8426336 0 -1
239.40018 -138.81378 1376.1062 9216358 0 -1
269.15793 68.959465 1383.0068 8952163 0 -1
-157.12109 -206.86513 1306.4393 10072185 0 -1
227.16086 -30.829809 1374.8848 9150052 0 -1
99.536209 288.98029 1356.1494 8886884 0 -1
305.4693 -47.203529 1388.0564 8821602 0 -1
18.939524 -157.13472 1337.8151 9874032 0 -1
103.00192 -143.15196 1352.3987 9610346 0 -1
-264.90515 115.14609 1291.2892 10928262 0 -1
106.89481 -128.98921 1353.0919 9545321 0 -1
-92.869186 300.29095 1323.3906 8690280 0 -1
-324.89139 142.8322 1281.3416 9808502 0 -1
-213.01137 -226.96791 1296.168 8886376 0 -1
-58.982014 -94.821243 1325.009 11783050 0 -1
-6.6211329 113.20003 1336.0938 10269816 0 -1
167.15541 310.74316 1368.0822 8426080 0 -1
218.96965 192.97945 1375.6215 8689507 0 -1
325.04645 293.17722 1394.8872 7834201 0 -1
134.8763 33.006702 1359.6093 9413739 0 -1
-132.93756 121.06744 1314.4041 11389334 0 -1
334.81332 135.16362 1395.0219 8558176 0 -1
138.96446 148.80634 1361.5071 9150055 0 -1
-118.21847 35.046318 1316.0096 14613946 0 -1
-213.06076 191.03111 1301.3854 10269562 0 -1
261.03406 43.094471 1381.4104 8887139 0 -1
211.03119 71.222633 1373.0814 9150054 0 -1
69.069588 -58.815575 1347.5408 9940336 0 -1
-252.43967 162.93213 1294.0463 10467455 0 -1
189.0726 307.06802 1371.5941 8622944 0 -1
348.97366 -129.16721 1394.9767 8689503 0 -1
-157.1561 76.829575 1309.6019 13824687 0 -1
-48.845848 121.15794 1328.9952 11059076 0 -1
115.06421 -164.79501 1354.3291 9741418 0 -1
-239.43762 282.96652 1297.8821 8887402 0 -1
202.88992 -178.85684 1369.4362 9479270 0 -1
257.12228 272.94052 1383.0573 8294750 0 -1
-231.58961 24.956343 1295.9272 14218414 0 -1
-114.85374 293.10226 1319.594 9018474 0 -1
-17.194407 219.06096 1335.3033 9479022 0 -1
117.07088 -166.81679 1354.5331 9479530 0 -1
-208.51624 -12.907246 1300.6536 11579001 0 -1
251.04276 305.01324 1382.3711 8162907 0 -1
230.92128 26.796494 1376.1294 9150053 0 -1
-234.86397 262.99115 1298.4792 9019500 0 -1
114.9073 238.85526 1358.4103 8821349 0 -1
152.26282 -40.805183 1361.9233 9676137 0 -1
-13.451291 208.67014 1335.9711 9741937 0 -1
-107.06894 -6.9357533 1317.4651 15466169 0 -1
-287.03513 242.95697 1289.0966 9019244 0 -1
-33.764954 -211.52333 1327.9583 9741934 0 -1
-171.04768 -42.881172 1305.8248 16121551 0 -1
147.54895 -153.22565 1360.064 9545066 0 -1
-257.02359 95.016502 1292.4437 11584910 0 -1
183.1488 -46.988396 1367.2172 9282151 0 -1
-214.93077 -99.125687 1297.3884 12309141 0 -1
-297.58676 -25.325531 1283.9272 11651472 0 -1
14.731541 -76.934799 1337.8901 10533241 0 -1
248.91698 -174.88782 1377.2495 9347428 0 -1
-239.13504 29.050152 1294.7899 12904874 0 -1
121.22265 210.85071 1359.0288 9018727 0 -1
-44.899963 -105.08067 1327.1453 11124867 0 -1
-166.98122 -173.04413 1305.0869 10664830 0 -1
-260.9931 191.10973 1292.9486 9874549 0 -1
-52.984406 -22.817934 1326.7098 12770971 0 -1
34.897366 143.0405 1343.6165 9742960 0 -1
46.975128 -75.172638 1343.5172 10006642 0 -1
-35.658409 -188.31837 1327.9998 9742704 0 -1
-229.0295 238.96086 1299.1599 9413999 0 -1
-304.94073 -27.041649 1282.6743 11388300 0 -1
264.84793 314.53732 1384.7738 4671536 0 -1
141.17856 87.379303 1352.2305 729361 1 0
-231.10596 240.91295 1298.8116 9348207 0 -1
205.14896 199.05009 1373.2856 8690021 0 -1
88.951294 -114.90137 1350.5281 9807467 0 -1
-173.06021 187.01465 1308.2599 10270589 0 -1
-200.90747 290.89069 1304.6597 8953194 0 -1
285.36688 286.88116 1388.0977 8163420 0 -1
136.92096 229.05772 1361.8716 9018214 0 -1
-181.11526 85.017776 1305.6007 13560740 0 -1
-225.80295 93.065079 1297.9631 12113048 0 -1
-306.9679 -96.95092 1281.4904 10664576 0 -1
316.9111 98.874893 1391.5143 8558176 0 -1
281.10657 -10.905983 1384.3065 8952674 0 -1
-91.059883 -103.10405 1319.1761 12112274 0 -1
-310.90839 169.15088 1284.225 9546355 0 -1
131.04401 91.016159 1359.531 9478761 0 -1
306.72415 113.07614 1389.8784 8689761 0 -1
-211.07716 -48.956421 1298.6766 13758119 0 -1
-27.155401 -20.964388 1331.2288 11651981 0 -1
39.203472 82.929108 1343.7319 9940594 0 -1
78.968109 -82.868263 1348.9691 9742699 0 -1
-60.884796 151.03403 1327.1379 10598014 0 -1
347.74075 -0.53816205 1396.0573 8623712 0 -1
45.069386 -124.87532 1342.5845 10005359 0 -1
27.064999 140.91177 1342.118 9742704 0 -1
-111.49419 284.6506 1319.9625 8952938 0 -1
74.96669 -29.072517 1348.6888 9808750 0 -1
-184.9169 195.05327 1306.2915 10401404 0 -1
136.84792 -51.05727 1359.2104 9610345 0 -1
332.63382 54.99897 1393.8401 8492639 0 -1
-161.24008 159.18179 1309.8494 11190662 0 -1
-314.93005 -28.91087 1280.9937 10928517 0 -1
-247.05536 285.03769 1296.6183 8755816 0 -1
288.58728 -186.8998 1383.866 9281635 0 -1
-187.0127 -163.22554 1301.6569 10862466 0 -1
-87.139374 -213.16046 1318.7085 9807728 0 -1
-133.27226 251.1037 1315.85 9348462 0 -1
279.08151 160.82892 1385.5394 8623968 0 -1
58.904079 -170.94894 1344.5614 9610347 0 -1
331.07529 160.86842 1394.6089 8491871 0 -1
-48.973701 252.80844 1330.2894 9412973 0 -1
-192.93462 -0.95399344 1302.5325 16318408 0 -1
-288.88086 90.843361 1286.9863 10861696 0 -1
-248.75139 277.26367 1296.1477 8821609 0 -1
-227.0918 271.11383 1299.8331 9150317 0 -1
-200.99879 219.03691 1303.8906 9742963 0 -1
-5.0721383 -137.18646 1333.8075 10465913 0 -1
-251.13165 -1.1781396 1292.3624 13099933 0 -1
-234.99277 38.987621 1295.6237 13890732 0 -1
210.90872 153.17395 1373.7573 8821090 0 -1
173.02121 190.92287 1367.7445 8821092 0 -1
172.9093 -50.875267 1365.449 9544040 0 -1
103.6003 210.78148 1356.0966 9215592 0 -1
220.9809 225.1906 1376.1997 8623713 0 -1
324.9617 12.991183 1392.1256 8623969 0 -1
243.04042 81.226723 1378.7715 8886628 0 -1
298.98926 147.02527 1389.014 8689249 0 -1
-217.52522 -199.14296 1295.8783 9941364 0 -1
242.9559 194.85701 1379.8085 8820320 0 -1
102.78698 -68.93866 1353.3075 9611370 0 -1
-58.828007 -153.14952 1324.302 10531959 0 -1
350.99521 112.84399 1397.3229 8426077 0 -1
140.9984 51.077366 1360.9673 8427367 0 -1
181.01318 -191.20819 1365.3956 9479527 0 -1
-248.97336 14.815663 1292.8916 12640410 0 -1
163.69641 -17.113127 1364.1123 9413737 0 -1
-316.48248 86.945999 1282.082 10598527 0 -1
21.126451 40.941013 1340.2009 10730106 0 -1
-128.90846 -127.09687 1312.2841 12570773 0 -1
322.82056 -78.869827 1390.8859 8821346 0 -1
122.21886 87.426537 1357.975 9479019 0 -1
-155.18115 -112.95598 1307.8696 12573331 0 -1
-145.13782 113.02036 1312.1536 12903328 0 -1
300.59775 8.7782688 1387.8784 8821091 0 -1
274.46036 263.13626 1385.8942 8229212 0 -1
-229.0443 -203.0081 1293.785 10137202 0 -1
241.15327 136.78154 1378.8773 8624738 0 -1
-287.03583 -104.82918 1284.777 11059073 0 -1
172.9969 42.904263 1366.2672 9347175 0 -1
179.11211 266.918 1369.4943 8492385 0 -1
-170.9902 272.81912 1309.6429 9150829 0 -1
-102.09869 148.93208 1320.0688 10994314 0 -1
-181.19235 271.14276 1307.8031 9084779 0 -1
-282.2413 242.90437 1290.0881 8953964 0 -1
-21.019632 170.799 1334.1826 10202486 0 -1
-287.10464 49.019508 1286.6285 11058821 0 -1
-37.163692 265.11255 1332.5848 9150568 0 -1
-57.217766 -224.95541 1323.8182 8028502 0 -1
101.00738 102.91322 1354.6222 9413995 0 -1
310.35287 -150.92625 1387.9713 9150051 0 -1
-264.26932 -229.5632 1288.7764 789763 0 -1
32.506313 1.1227207 1341.8042 10729082 0 -1
248.83351 -216.97481 1376.6846 9413477 0 -1
105.12678 123.15446 1355.4175 9413226 0 -1
-8.9018784 105.19979 1335.5868 10532731 0 -1
-239.78467 140.81801 1295.9701 11125641 0 -1
84.863716 -88.865372 1349.844 9807982 0 -1
-161.1366 -59.136742 1307.4031 15138486 0 -1
-239.00252 258.98834 1297.5844 9150316 0 -1
166.97751 266.89029 1367.4664 8754786 0 -1
205.13092 -199.09389 1369.4884 9545064 0 -1
235.10486 -77.046791 1375.832 9281382 0 -1
74.292488 -96.996811 1347.9868 9939311 0 -1
64.834412 134.85938 1348.717 9610604 0 -1
-153.00919 158.82745 1311.4053 11388295 0 -1
132.79619 133.22868 1360.3663 9150568 0 -1
3.1990471 -132.89948 1335.1819 10400888 0 -1
-147.04839 -19.028103 1310.2322 15794127 0 -1
177.17513 -115.05606 1365.4227 9479272 0 -1
-167.23169 122.79643 1307.6083 11387030 0 -1
249.17085 281.13849 1381.5184 8295006 0 -1
-78.976036 -196.82193 1320.2661 9743728 0 -1
-326.80167 -4.9233727 1279.2588 10664319 0 -1
266.8157 -163.11964 1380.2953 9084773 0 -1
293.01828 80.925018 1387.2577 8952419 0 -1
73.196922 89.084442 1349.632 9610862 0 -1
-140.90385 -174.88869 1309.6501 10599038 0 -1
-76.89389 76.937729 1323.5756 12375700 0 -1
295.00549 83.052139 1387.6163 8886882 0 -1
-330.82571 106.8802 1281.4592 7564115 0 -1
49.179203 163.01796 1346.1659 9282668 0 -1
88.936035 188.83313 1353.2678 9150312 0 -1
-182.91547 184.93002 1306.4827 10532732 0 -1
-309.08609 142.93999 1284.1858 10136953 0 -1
-39.565662 44.888142 1329.9023 12047506 0 -1
-116.9733 -36.966324 1315.4799 15335095 0 -1
-122.90612 99.089508 1315.799 13165474 0 -1
-86.963028 -167.145 1319.2402 10532476 0 -1
-292.90219 -46.832478 1284.6053 11256198 0 -1
147.52255 -149.24001 1360.0544 9741929 0 -1
37.062778 -125.10762 1341.1616 10006127 0 -1
112.09703 60.676476 1355.979 9742445 0 -1
309.1001 -189.12238 1387.5251 9018723 0 -1
-76.095291 278.07681 1326.0049 9018474 0 -1
-158.9279 118.39588 1310.6057 8883296 0 -1
109.14677 -22.739672 1354.5555 8557926 0 -1
168.93182 46.848602 1365.6935 9347178 0 -1
-192.95915 -134.96219 1300.9154 11652493 0 -1
286.97504 -179.13982 1383.6432 9216100 0 -1
-205.17143 126.85889 1301.9038 12242833 0 -1
-147.1032 -73.014381 1309.7869 14678702 0 -1
-198.79391 91.13961 1296.6592 860693 1 0
167.10669 295.11566 1367.7661 8623456 0 -1
332.94141 -218.45679 1391.4246 9078614 0 -1
144.78317 -161.09485 1359.3267 9545065 0 -1
93.073067 115.10538 1353.316 9544812 0 -1
-183.00481 21.133997 1304.6227 15728585 0 -1
-324.94315 239.17448 1282.7866 8887145 0 -1
-272.94287 160.82698 1290.4338 10138234 0 -1
272.93539 31.053057 1383.271 8887140 0 -1
-25.413244 203.09938 1333.8845 9545839 0 -1
-85.096436 116.81418 1322.6573 11651980 0 -1
-154.36795 225.23155 1312.0842 9808758 0 -1
253.0089 311.1026 1382.5868 8162651 0 -1
-76.820084 -98.937233 1321.6563 12177043 0 -1
319.07654 -132.99471 1389.6783 8886881 0 -1
-202.84926 112.9866 1302.2024 12376730 0 -1
-318.95166 -81.117813 1279.5892 10401150 0 -1
-108.93503 141.10359 1318.7843 11323018 0 -1
192.58784 67.100739 1369.8732 9215589 0 -1
63.019821 277.19577 1349.7659 8821094 0 -1
-128.94609 225.03696 1316.3002 9677428 0 -1
196.74838 209.36244 1371.9521 8886628 0 -1
88.387871 58.878204 1351.9316 10004846 0 -1
193.03133 43.055264 1369.7111 9215846 0 -1
-208.83627 103.16425 1300.983 13296806 0 -1
-209.0943 6.8196831 1299.8276 14876353 0 -1
-163.15198 8.9292955 1307.8318 16056273 0 -1
-63.165516 110.80807 1326.3702 11651470 0 -1
10.981997 145.01624 1339.4381 9875059 0 -1
32.551586 5.0713983 1341.8556 10729339 0 -1
343.41772 -118.88912 1394.0925 8820575 0 -1
77.241287 -126.88549 1348.1576 9611371 0 -1
-143.13803 91.021324 1312.2859 13168294 0 -1
-134.96483 -204.88063 1310.4222 9875573 0 -1
-229.04997 286.9108 1299.7576 8821353 0 -1
250.34583 -125.17882 1377.9489 9084772 0 -1
292.58249 -46.955906 1385.855 8952674 0 -1
-196.96294 -93.090889 1300.6523 13165729 0 -1
228.83752 164.83774 1377.0055 8820834 0 -1
71.066978 -87.165749 1347.5005 9874032 0 -1
-243.79222 195.19485 1295.9707 9743224 0 -1
-278.95993 -51.10313 1286.8579 11453831 0 -1
79.143806 38.778385 1350.1823 9873262 0 -1
-328.4631 -193.25487 1283.9514 723456 0 -1
196.49309 212.90828 1371.918 8493153 0 -1
-269.07336 283.2283 1292.8159 8623463 0 -1
320.94626 -157.1483 1389.766 9084258 0 -1
291.03537 93.163673 1386.9336 8755297 0 -1
312.99854 229.21623 1392.1638 8294749 0 -1
-304.9021 283.16214 1286.847 8558183 0 -1
-249.8593 -53.222206 1291.9705 12441497 0 -1
151.35704 -7.0953293 1362.1473 9413737 0 -1
-27.156727 -26.984003 1331.2428 11585931 0 -1
35.004997 -78.938034 1341.4717 10203508 0 -1
-291.08578 19.123055 1285.7319 11783826 0 -1
-328.45218 -62.137295 1280.4305 2236696 0 -1
107.16214 -190.85352 1352.5698 9544810 0 -1
-82.917313 167.17049 1323.5347 10466940 0 -1
173.05684 21.130987 1366.1687 9216615 0 -1
-276.95468 -81.048615 1286.8739 11257479 0 -1
1.2832236 -210.99895 1334.1149 9676141 0 -1
347.01492 -210.96597 1393.7327 8886623 0 -1
-321.79755 -9.0147572 1279.9474 10796161 0 -1
-99.027191 -156.81438 1317.2664 10533243 0 -1
-240.86484 -25.018538 1293.8287 12968607 0 -1
-173.14311 82.927559 1306.9785 13889451 0 -1
-247.11592 42.978031 1293.6023 13100193 0 -1
-203.98085 108.92166 1301.928 12967840 0 -1
-123.00035 298.81448 1318.1683 9018729 0 -1
337.44623 208.84682 1396.1626 8163420 0 -1
163.0569 -153.11633 1362.6327 9413736 0 -1
16.806847 -164.85844 1337.2932 9939568 0 -1
126.82869 33.211742 1358.311 9414250 0 -1
23.061144 12.821061 1340.2917 10467193 0 -1
-241.09625 -11.09322 1293.8562 13628069 0 -1
-63.421082 75.032333 1325.9462 12178065 0 -1
-14.430246 27.719948 1334.0247 11782283 0 -1
-58.825111 91.069603 1326.915 11389320 0 -1
-29.106688 60.940155 1331.7504 11978634 0 -1
122.97585 -107.17732 1356.2277 9741676 0 -1
-152.91789 73.043732 1310.3326 14810034 0 -1
328.98779 -41.14397 1392.265 8755553 0 -1
-72.83477 -205.00964 1321.3312 9807982 0 -1
-121.00633 177.19281 1317.1062 10730368 0 -1
228.69823 40.885586 1375.8694 9149797 0 -1
236.66705 -81.080025 1375.912 9084516 0 -1
-30.804581 240.96432 1333.3566 9216618 0 -1
126.3172 -198.93474 1355.9227 9544810 0 -1
237.02063 48.926739 1377.2407 9083748 0 -1
128.96118 -125.00551 1357.056 9676394 0 -1
-234.93733 78.947464 1296.205 12508058 0 -1
180.1387 88.782944 1367.9806 9215333 0 -1
113.15196 -185.07835 1353.72 9545066 0 -1
-29.157658 118.99805 1332.2103 10795645 0 -1
-128.99142 -63.122417 1313.0018 14482611 0 -1
217.60669 258.95859 1376.1721 8623714 0 -1
252.59122 252.73708 1381.8944 8295261 0 -1
166.96159 67.191956 1365.4773 9150310 0 -1
-169.23306 272.8869 1309.8944 9216363 0 -1
120.53207 -14.218764 1350.8586 795409 1 0
120.84378 50.907124 1357.4401 9545067 0 -1
-136.9447 -135.13719 1310.8093 11718546 0 -1
67.000824 176.80209 1349.3473 9084777 0 -1
-278.95862 -36.971466 1287.0806 11783567 0 -1
-141.01237 162.85727 1313.5432 11190917 0 -1
224.99403 276.82999 1377.4658 8426078 0 -1
-277.39737 6.8373642 1287.8873 12178583 0 -1
-295.09659 146.88293 1286.6406 10137977 0 -1
175.16119 68.783234 1366.9618 9084518 0 -1
-251.44572 -194.92349 1289.8503 10268278 0 -1
233.04651 -89.06855 1375.3307 9216101 0 -1
353.09583 -159.18398 1395.1744 8689247 0 -1
93.357277 -210.97298 1350.0551 9348201 0 -1
-245.03438 -20.999187 1293.0499 13035425 0 -1
-257.96552 -95.30851 1289.9928 11323011 0 -1
-110.95492 -117.01508 1315.5288 12178067 0 -1
244.5744 -214.51132 1375.9895 9413991 0 -1
199.17223 280.93668 1373.2701 8557920 0 -1
45.039562 50.818077 1344.5093 10203252 0 -1
128.76691 265.15421 1360.8336 8886629 0 -1
-6.9560952 -24.881304 1334.7566 11125637 0 -1
175.02956 -73.163101 1365.4998 9413737 0 -1
144.96652 201.07236 1362.928 9084006 0 -1
22.838549 221.12352 1342.2177 9479276 0 -1
-68.991959 10.964344 1324.3258 13559716 0 -1
273.04822 102.90936 1384.1573 8690017 0 -1
-326.90561 177.15404 1281.5634 9545073 0 -1
-172.99998 -188.97984 1303.8689 10401659 0 -1
-275.52722 -174.80251 1285.9387 10137461 0 -1
123.27094 -134.72496 1356.1115 9413993 0 -1
-253.02036 214.8634 1294.687 9611124 0 -1
-89.018661 -141.07913 1319.1492 10730107 0 -1
-190.9781 191.08907 1305.1437 10466943 0 -1
103.50777 -5.4216371 1354.0365 9742700 0 -1
249.10706 217.10561 1380.9771 8557920 0 -1
-321.65802 -15.032672 1279.9441 11387271 0 -1
109.07883 -173.04745 1353.1002 9479527 0 -1
202.9825 71.118118 1371.6735 9018726 0 -1
337.1124 120.84849 1395.1523 8492126 0 -1
75.419167 303.23254 1352.1404 8558436 0 -1
-125.27571 -217.21101 1311.884 9808496 0 -1
120.84047 48.937309 1357.4427 9610603 0 -1
127.53444 -9.7928677 1347.999 929047 1 0
330.97232 6.8738637 1393.1622 8558689 0 -1
-74.940414 49.103355 1323.6796 12705692 0 -1
-97.764168 75.331467 1319.9194 12901789 0 -1
61.000736 271.08102 1349.4669 8755557 0 -1
-44.926716 65.163635 1329.0752 12242574 0 -1
328.46674 164.50363 1393.9512 8295260 0 -1
124.86869 -35.279278 1357.3436 9479787 0 -1
-91.00531 206.98711 1322.7111 9874035 0 -1
-6.9555564 -124.96755 1333.5872 10204790 0 -1
36.811794 304.64249 1345.5774 8952165 0 -1
247.74529 -66.808182 1378.0704 9018979 0 -1
-158.99728 277.07538 1311.7465 9281646 0 -1
242.89409 -196.95403 1375.8409 9544807 0 -1
-199.03308 290.95874 1305.1022 8887402 0 -1
234.57231 166.67477 1377.8947 8558434 0 -1
-131.01178 -175.05663 1311.4244 10270331 0 -1
266.9559 -33.077637 1381.6383 9017955 0 -1
-56.84565 -12.948314 1326.0941 12706974 0 -1
316.8302 -80.815392 1389.8105 8821346 0 -1
-255.30954 20.921103 1291.9291 12575903 0 -1
93.029137 -156.79707 1350.4198 9676139 0 -1
346.89618 171.0587 1397.4265 8294749 0 -1
159.10771 -32.932575 1363.1068 9217128 0 -1
-15.144886 -22.926214 1333.363 11257992 0 -1
210.8707 193.20929 1374.2535 8755042 0 -1
-66.996506 186.96077 1326.5347 9940341 0 -1
210.98796 102.8229 1373.4003 9083491 0 -1
331.04453 -179.09212 1391.2773 9018978 0 -1
-28.982571 169.16104 1332.7526 10006133 0 -1
-226.92026 -19.137848 1296.356 13955239 0 -1
-98.369843 89.647858 1320.0728 12310933 0 -1
275.15564 139.17917 1384.5981 8689248 0 -1
-328.85086 125.01747 1280.5802 10006393 0 -1
-41.835873 287.39551 1331.9705 9150570 0 -1
166.91577 -191.05522 1362.9788 9610600 0 -1
-38.954414 209.17166 1331.704 9611633 0 -1
59.212471 208.87064 1348.3684 9215849 0 -1
-36.75901 27.164448 1330.1724 12440723 0 -1
202.91527 85.385468 1371.8745 9149542 0 -1
-161.03439 -161.14313 1306.2212 11255943 0 -1
-186.98343 -105.04854 1302.3768 12376727 0 -1
-324.91904 -43.002033 1279.1501 10795649 0 -1
252.36304 59.655468 1379.9707 8952676 0 -1
354.36902 -75.199326 1395.2614 7963232 0 -1
-23.053808 245.17203 1334.7988 9085549 0 -1
164.73457 150.82507 1365.924 8887655 0 -1
119.24347 -48.94178 1356.1586 9610857 0 -1
-304.99857 279.03879 1286.7028 8492903 0 -1
-56.08345 -32.8857 1326.0774 13033119 0 -1
-283.22589 -228.83739 1283.7317 5857607 0 -1
249.19272 147.14272 1380.3354 8755042 0 -1
-248.81445 275.04367 1296.2255 8887402 0 -1
-77.011223 -17.011234 1322.6061 13297568 0 -1
153.07866 244.86087 1364.7485 8755556 0 -1
32.863525 51.144325 1342.3547 10203767 0 -1
-112.79379 -215.00864 1314.1526 9743215 0 -1
200.91913 -190.88789 1368.9642 9479526 0 -1
180.99699 -155.09485 1365.7289 9282406 0 -1
323.63309 -194.5744 1390.0607 9018979 0 -1
-260.41785 -222.88945 1288.078 9479532 0 -1
-318.96014 -79.003456 1279.6837 10335610 0 -1
214.98672 88.777855 1373.8816 9084004 0 -1
150.64426 67.087326 1348.8601 728845 1 0
-7.6785474 -83.074982 1333.9703 10795391 0 -1
-151.0829 154.98824 1311.6068 11389581 0 -1
205.0144 -115.12444 1370.2319 9413736 0 -1
176.8681 253.0267 1369.0989 8558435 0 -1
66.920273 241.19603 1350.1689 8821606 0 -1
52.888908 -103.04218 1344.319 9940082 0 -1
161.0202 -153.06723 1362.3174 9610345 0 -1
-246.88493 159.13611 1295.144 10992770 0 -1
-198.76797 -34.991104 1291.5938 1190425 1 0
298.83563 -190.80272 1385.7856 9347428 0 -1
188.74515 -78.818481 1367.7806 9610345 0 -1
-127.47165 -177.02467 1311.8951 10663288 0 -1
215.24045 238.90097 1375.4142 8623969 0 -1
141.01178 55.032681 1361.0162 8492647 0 -1
-16.710993 266.81653 1336.0935 9149800 0 -1
-265.43112 -170.85275 1287.8448 10072951 0 -1
184.8804 138.9183 1369.2954 8952932 0 -1
7.1914501 283.11896 1340.3381 8953193 0 -1
320.90759 197.06438 1393.0564 8426335 0 -1
179.7299 -103.0456 1366.0211 9348455 0 -1
-102.91063 166.83588 1320.1517 10532735 0 -1
268.88675 -68.943985 1381.6477 8952675 0 -1
316.94269 -71.223991 1389.8718 8886625 0 -1
161.01025 138.83864 1365.1031 9018725 0 -1
101.07573 -180.84109 1351.7343 9610346 0 -1
152.10901 172.66589 1363.9707 9084517 0 -1
-1.2038325 144.85902 1337.348 10005876 0 -1
296.90842 175.18274 1388.6493 8688992 0 -1
323.99908 -184.25331 1390.0413 9084260 0 -1
-159.03209 -14.973147 1308.4143 15990481 0 -1
-148.97711 253.2085 1313.213 9413486 0 -1
-110.18918 -90.467514 1316.02 12572566 0 -1
217.21068 -207.1387 1371.5837 9348199 0 -1
-161.11931 -226.96033 1305.59 7041101 0 -1
-41.049324 -55.061626 1328.4789 11519629 0 -1
-22.85652 -120.85072 1330.9475 10664572 0 -1
-245.07175 -53.096577 1292.8118 12507031 0 -1
297.04709 -83.035927 1386.2728 9084259 0 -1
-298.91278 166.8085 1286.1975 9808756 0 -1
200.82228 -182.79681 1368.8601 9479783 0 -1
349.92001 -41.578968 1396.0305 8689504 0 -1
-154.13174 -114.51667 1308.0347 13099931 0 -1
-117.08139 55.105114 1316.3325 14416568 0 -1
31.103367 205.07549 1343.5334 9347691 0 -1
307.05716 264.83389 1391.3405 8162907 0 -1
64.839745 122.9744 1348.561 9479276 0 -1
109.56706 -97.524506 1354.0376 9676652 0 -1
163.25102 -209.25497 1362.1245 9479271 0 -1
133.68614 -4.4421039 1351.1779 204307 1 0
138.29507 210.77335 1361.9248 9017956 0 -1
136.83339 214.78368 1361.8077 9084006 0 -1
252.87524 -198.79497 1377.6791 9282149 0 -1
-296.89594 -171.05173 1282.3473 10465400 0 -1
-219.17824 166.99956 1299.8925 10599297 0 -1
223.0305 -70.856651 1373.6993 9347687 0 -1
152.98468 119.21072 1363.6494 9215591 0 -1
66.736221 108.95275 1348.7626 9676140 0 -1
289.03931 130.87431 1387.0378 8689505 0 -1
-235.05412 -37.070366 1294.7141 13231008 0 -1
5.1591845 -189.05106 1335.0985 9808749 0 -1
186.62108 177.14447 1369.882 8886885 0 -1
-85.031075 300.37909 1324.6737 8821096 0 -1
271.04486 251.07436 1384.9808 8426846 0 -1
195.07254 176.97839 1371.3914 8887139 0 -1
18.301989 -49.968903 1328.8737 663569 1 0
224.92188 287.18982 1377.5889 8426335 0 -1
-108.99329 18.839792 1317.5048 15204033 0 -1
40.586052 -50.999947 1339.134 270099 0 -1
-43.023468 280.84424 1331.6145 9084522 0 -1
-175.16428 -50.998718 1305.0363 14284975 0 -1
-249.21448 296.22394 1296.5175 8558696 0 -1
-5.0242157 -96.890633 1334.2286 10926975 0 -1
219.02409 54.783272 1374.3739 9150310 0 -1
-19.079094 161.06963 1334.5247 9874290 0 -1
-303.06805 -216.96175 1280.7473 9414256 0 -1
160.69681 224.7681 1365.8976 8821349 0 -1
249.10602 182.78664 1380.5658 8623456 0 -1
113.08067 -169.69931 1353.9324 9348199 0 -1
-71.156952 61.126801 1324.4514 12508054 0 -1
58.762581 -118.95376 1345.0012 9677163 0 -1
-102.8801 31.038336 1318.7999 14351289 0 -1
-27.02257 290.91211 1334.5533 8887143 0 -1
-164.98604 245.01108 1310.2897 9610865 0 -1
157.21898 -103.00201 1362.1556 9544808 0 -1
237.10043 100.78259 1377.7207 8821604 0 -1
-126.90346 21.191065 1314.3276 15925200 0 -1
-5.0258555 -40.818218 1334.8094 10072444 0 -1
-167.09073 203.07237 1309.3715 10073208 0 -1
329.04175 242.90894 1394.9221 8163164 0 -1
73.038498 196.82286 1350.5192 9150311 0 -1
-162.83502 -216.87473 1305.2242 9742705 0 -1
353.11221 -96.827332 1395.8467 8492381 0 -1
-136.99168 6.8890953 1312.4026 16449496 0 -1
315.06534 -188.82169 1388.4996 9018723 0 -1
-210.30861 -116.78508 1298.0906 12243343 0 -1
258.93631 187.13907 1382.2313 8426591 0 -1
128.87128 -204.99445 1356.2114 9479015 0 -1
-189.04083 141.08098 1304.8804 11915155 0 -1
-163.01227 -70.995636 1306.8273 14282927 0 -1
229.10237 -127.15018 1374.2537 9478759 0 -1
-61.814903 -151.54335 1323.9486 10795132 0 -1
-242.97282 -6.8439813 1293.6497 13822118 0 -1
-301.01944 -57.165722 1282.9888 11257224 0 -1
268.82736 96.818748 1383.1013 8820834 0 -1
16.508657 294.91422 1341.9374 8887399 0 -1
276.84604 -56.906067 1383.0956 9018467 0 -1
-45.615635 164.82948 1329.9083 10203001 0 -1
-51.12331 53.07917 1327.7877 12375187 0 -1
224.96544 193.15794 1376.4264 8689505 0 -1
-53.029598 46.818531 1327.4851 12572566 0 -1
97.099274 -175.20673 1351.0861 9413993 0 -1
-253.10712 -126.92813 1290.5314 10862464 0 -1
-187.05252 -218.85249 1301.0061 9874290 0 -1
171.1716 159.14967 1367.129 9084005 0 -1
175.1777 72.764702 1366.98 9018725 0 -1
239.93509 -142.6033 1376.0466 9479527 0 -1
13.239063 171.12396 1340.0767 9874290 0 -1
247.78194 148.98195 1380.0922 8623968 0 -1
71.079842 -94.992401 1347.4478 9676651 0 -1
279.02924 180.92886 1385.754 8427104 0 -1
344.95035 -13.093804 1395.4259 8557919 0 -1
-210.97139 192.98593 1301.7507 10269818 0 -1
227.19124 7.2349615 1375.2297 9084516 0 -1
-259.0036 -45.032608 1290.485 12246171 0 -1
37.150551 61.022182 1343.1702 10202740 0 -1
-125.02757 28.821854 1314.6538 16252867 0 -1
5.1453948 137.0825 1338.3354 10071411 0 -1
9.016242 -136.90604 1336.2632 10203250 0 -1
302.99792 253.14639 1390.5786 8294492 0 -1
-242.96956 151.07863 1295.6899 10993284 0 -1
112.77354 -72.977257 1354.9055 9545579 0 -1
-76.867874 -122.97057 1321.4828 11388036 0 -1
-108.37292 235.00662 1320.0444 9413999 0 -1
-218.11539 19.410988 1299.0786 1520662 0 -1
-308.99271 54.869427 1282.9918 10731138 0 -1
306.99176 225.06332 1390.9778 8294493 0 -1
47.859238 174.46657 1346.0718 9610860 0 -1
281.71033 177.23744 1386.0769 8426848 0 -1
14.201056 -61.622364 1337.9016 10664572 0 -1
155.18088 -103.21104 1361.7578 9544809 0 -1
-220.93253 217.01192 1300.3115 9611634 0 -1
-273.13654 138.8923 1290.2778 10729856 0 -1
-94.991707 297.18488 1323.0819 8690022 0 -1
-160.3333 -87.816101 1306.3406 5466433 0 -1
140.54977 7.3104033 1349.6041 663058 1 0
328.94189 272.83105 1395.3334 7965786 0 -1
-53.067303 -136.81451 1325.47 10927231 0 -1
-306.98376 -229.02657 1279.5898 6449994 0 -1
233.16855 -178.82574 1374.6385 9282661 0 -1
-107.12042 -90.972969 1316.5339 12180371 0 -1
-293.10541 -202.98798 1282.671 9939827 0 -1
-288.84302 -198.96336 1283.3601 9611889 0 -1
170.89424 -73.184288 1364.7975 9413479 0 -1
-174.86517 -191.17166 1303.5807 10335867 0 -1
32.815521 44.895088 1342.277 10532217 0 -1
-16.93685 -43.279934 1314.6797 597778 1 0
164.98793 208.83185 1366.5043 8755813 0 -1
241.13936 75.145653 1378.3087 9018212 0 -1
349.10199 4.8477893 1396.2135 8557663 0 -1
-37.269741 211.66557 1331.9707 9611374 0 -1
124.80304 -77.05542 1356.8456 9676651 0 -1
-152.95517 -151.12759 1307.756 11257993 0 -1
90.836472 -60.970364 1351.2915 9873773 0 -1
-41.122929 -149.11041 1327.4529 10270069 0 -1
72.669571 -69.194878 1347.882 9808494 0 -1
95.357544 161.73291 1354.0472 9412969 0 -1
310.02896 -153.73831 1387.9323 8821858 0 -1
-165.78333 66.533409 1307.9749 15662781 0 -1
-273.09601 -158.93309 1286.8107 10204025 0 -1
215.18375 -44.758205 1372.7301 9216101 0 -1
169.19473 -152.78558 1363.7621 9479272 0 -1
219.0067 295.18399 1376.6742 8426592 0 -1
289.13086 311.12656 1388.9279 7899737 0 -1
-264.87216 6.8405099 1290.1373 12572820 0 -1
134.70915 62.87291 1359.8453 9479018 0 -1
104.85848 174.83081 1355.8378 9280871 0 -1
77.136139 101.06234 1350.4767 9545323 0 -1
256.85016 -109.15271 1379.175 9084515 0 -1
110.96368 -144.88783 1353.7574 9479785 0 -1
-124.90516 153.06316 1316.1339 11387525 0 -1
321.08066 216.98595 1393.2902 8360542 0 -1
34.218128 -12.990138 1341.9073 10729081 0 -1
-288.52103 183.08658 1288.1508 9742709 0 -1
330.91025 -13.056173 1392.8851 8689760 0 -1
21.346771 233.09164 1342.1443 9216106 0 -1
-74.884972 276.86957 1326.1881 8952938 0 -1
-49.919655 39.140785 1327.9756 12638108 0 -1
-193.00925 78.99424 1303.4585 14348462 0 -1
154.87344 155.26999 1364.2395 9018726 0 -1
-183.05971 -217.01115 1301.8223 9809266 0 -1
-324.95377 137.08481 1281.3473 9809014 0 -1
-15.153521 -115.15672 1332.355 10599038 0 -1
294.89667 166.8942 1388.2615 8623713 0 -1
-78.924614 226.86928 1325.0179 9479536 0 -1
86.755516 -36.839489 1350.4827 8886635 0 -1
219.03581 -110.90352 1372.7284 9347430 0 -1
138.68184 -21.044107 1359.8627 9806954 0 -1
38.991936 -151.16574 1341.3295 9939310 0 -1
107.53716 153.08765 1356.1405 9347690 0 -1
-171.18542 -39.153656 1305.8907 15138507 0 -1
0.95616871 146.8959 1337.7549 9940081 0 -1
-253.67493 -175.04207 1289.8577 10204279 0 -1
91.033302 204.87192 1353.8623 9150056 0 -1
259.02325 269.12012 1383.0983 8360798 0 -1
-117.09437 224.98631 1318.292 9809014 0 -1
211.04115 206.94354 1374.3623 8624226 0 -1
-322.81583 -195.10406 1277.7916 9545583 0 -1
95.156342 -187.03842 1350.6241 9741419 0 -1
-231.09439 -200.8735 1293.5139 10071923 0 -1
-259.13077 25.008125 1291.359 12640411 0 -1
201.54095 134.94342 1372.0676 9149540 0 -1
-314.92123 -84.899818 1280.2416 10598529 0 -1
-324.74625 -115.03503 1278.33 10006393 0 -1
26.970512 -92.936325 1339.8854 10269299 0 -1
-279.04013 -165.08885 1285.5427 10138232 0 -1
-27.163036 -83.108803 1330.537 10862721 0 -1
302.93494 -201.13483 1386.1888 9281636 0 -1
-193.01721 -95.024918 1301.431 12902817 0 -1
10.26396 -193.09737 1335.9282 9874032 0 -1
-2.4706168 19.206867 1336.0408 11060356 0 -1
78.969368 -49.422073 1349.5413 8493159 0 -1
129.21951 120.76812 1357.3723 5528363 0 -1
103.04005 -162.99646 1352.2635 9414250 0 -1
276.83118 -10.897087 1383.582 9018212 0 -1
53.026299 129.14244 1346.5402 9479790 0 -1
344.9306 113.06581 1396.5802 8426592 0 -1
-233.2915 189.01643 1297.8577 10138489 0 -1
-139.74142 181.00993 1313.9757 10730368 0 -1
-140.82094 206.86385 1314.1023 10268794 0 -1
-270.96082 174.9176 1291.1215 10071928 0 -1
173.09612 241.13054 1368.3124 8755556 0 -1
53.003712 -112.73374 1344.1434 9678191 0 -1
-139.05241 280.98981 1315.0509 9150315 0 -1
-140.93782 73.12117 1312.4502 14284980 0 -1
-271.0209 213.19264 1291.563 9414513 0 -1
-156.09081 97.602753 1310.0114 12575650 0 -1
-34.850163 -109.07204 1328.8905 11189632 0 -1
138.91869 -192.8558 1358.1993 9479271 0 -1
216.98395 102.93671 1374.4567 9084004 0 -1
-207.0629 -111.04818 1298.6537 12965528 0 -1
170.99617 -188.88799 1363.821 9479271 0 -1
146.96904 7.1339884 1361.5752 9018984 0 -1
-243.04858 116.97048 1295.2625 11455885 0 -1
-119.10033 287.02658 1318.806 9150316 0 -1
-187.05057 282.823 1306.947 8953450 0 -1
318.8924 -15.064161 1390.7843 8755554 0 -1
340.83102 171.00699 1396.192 8294493 0 -1
121.18259 -184.80811 1355.0283 9348199 0 -1
147.10413 -201.13586 1359.6169 9544551 0 -1
-234.85507 -205.11481 1292.6909 9809268 0 -1
-31.17445 180.87373 1332.6273 9940082 0 -1
292.97183 266.99783 1388.9913 8294750 0 -1
-212.34633 -5.2167225 1299.7681 1913626 0 -1
200.41452 156.79492 1371.9829 8755555 0 -1
353.10876 -81.022583 1395.9116 8623454 0 -1
67.103584 -74.897369 1346.8474 9742959 0 -1
227.01074 164.79091 1376.7598 8951907 0 -1
106.31395 -53.199287 1353.9667 9676652 0 -1
-47.00861 -222.91307 1325.5372 9544811 0 -1
-259.02628 -6.8358197 1290.9604 12836250 0 -1
-1.1664835 22.930229 1336.191 10994049 0 -1
-200.83983 149.10411 1302.9426 11585933 0 -1
-189.25093 -47.222656 1292.42 2900780 1 0
-235.04465 109.17502 1296.5714 11981208 0 -1
10.945189 -113.10987 1336.7885 10597494 0 -1
96.823883 33.054989 1353.184 9676652 0 -1
-205.14044 -172.99094 1298.3613 10665086 0 -1
-174.85364 291.00418 1309.1719 8887402 0 -1
201.17964 -39.161655 1370.4108 9281895 0 -1
5.1573234 -185.13608 1335.1464 9939569 0 -1
9.1571703 285.22049 1340.786 8953193 0 -1
-214.91888 -228.12134 1295.673 2370336 0 -1
104.90514 76.848503 1354.9915 9413739 0 -1
99.061256 115.21829 1354.4198 9544555 0 -1
-116.50018 -170.8777 1314.0629 10532214 0 -1
181.01396 86.732353 1368.1627 9084261 0 -1
68.871712 147.18816 1349.4713 9282668 0 -1
-220.84889 138.8443 1299.2877 11585933 0 -1
-120.83442 151.07426 1316.8546 11323018 0 -1
-247.04533 -162.97156 1291.1816 10270075 0 -1
-179.08551 128.96863 1306.4648 11981461 0 -1
23.157074 138.88286 1341.4774 10005362 0 -1
315.65421 -30.736362 1390.0508 8952162 0 -1
-165.00706 156.98592 1309.3394 11387782 0 -1
-59.034698 75.166283 1326.7245 12178834 0 -1
-159.0034 -166.95789 1306.4895 10862206 0 -1
-327.34601 -131.17122 1280.1401 1976080 0 -1
314.93396 71.111923 1390.8903 8689760 0 -1
-126.8632 -30.97677 1313.8313 15531966 0 -1
-250.63557 287.13602 1296.0513 8690537 0 -1
-124.97306 -48.845913 1313.8091 14745276 0 -1
-45.226192 144.93765 1329.887 10598267 0 -1
351.01776 114.90804 1397.3298 8360542 0 -1
-72.973572 -27.075588 1323.1891 12970145 0 -1
7.054677 29.003464 1337.6526 11125121 0 -1
-248.97617 45.09848 1293.2408 12967839 0 -1
-55.018356 255.1219 1329.3374 9216363 0 -1
107.05717 118.80549 1355.6228 9479018 0 -1
-55.006798 251.1796 1329.4032 9347693 0 -1
-50.980927 -173.16121 1325.496 10005873 0 -1
147.0396 -91.196159 1360.6075 9545065 0 -1
-32.576836 -220.86505 1328.1542 9544556 0 -1
185.04239 285.14191 1370.7659 8754786 0 -1
-44.872471 -12.992215 1328.2792 12571800 0 -1
-311.30365 290.82452 1285.8562 8623975 0 -1
-293.11578 43.112926 1285.5691 10928772 0 -1
234.94711 -142.97903 1375.2086 9347431 0 -1
45.068382 75.190865 1344.7117 10136947 0 -1
-6.472218 -87.195671 1334.0864 10664316 0 -1
120.56372 301.07687 1359.8901 8558691 0 -1
180.82375 146.84727 1368.642 8952932 0 -1
-130.83688 161.07149 1315.2531 10993798 0 -1
10.929981 -60.995232 1337.4504 10664573 0 -1
51.149075 163.06381 1346.5054 9544812 0 -1
-74.992889 294.78714 1326.3334 8821353 0 -1
-38.819313 147.04599 1330.9839 10204279 0 -1
-300.92349 -92.972977 1282.6267 10927489 0 -1
-323.17059 -163.3544 1277.9326 10005363 0 -1
-142.84584 -105.03326 1310.0977 12574874 0 -1
100.95078 232.84848 1355.8484 9084520 0 -1
-253.65221 164.8477 1293.9607 10007927 0 -1
-148.97493 -66.81752 1309.5764 13957816 0 -1
124.2589 -145.68597 1355.9768 9479019 0 -1
352.21786 216.345 1398.8925 1318158 0 -1
-165.16296 -212.98247 1304.9287 10071668 0 -1
-220.88405 212.90987 1300.3467 9612406 0 -1
81.102295 201.18181 1352.1351 9019240 0 -1
191.0995 191.02881 1370.9418 8952420 0 -1
124.78483 212.99124 1359.719 9084006 0 -1
146.45039 -138.7709 1359.928 9348201 0 -1
182.86714 308.83337 1370.6471 8361056 0 -1
-195.14874 142.92987 1303.8146 11519884 0 -1
-291.0849 -75.09507 1284.464 11454349 0 -1
-246.89908 -147.03491 1291.3281 10664062 0 -1
-4.7348056 -44.912964 1320.599 598034 1 0
188.99881 -221.02304 1366.6375 8223816 0 -1
-8.353467 -70.408165 1334.0608 10731134 0 -1
178.98537 -119.07786 1365.6689 9610089 0 -1
271.0939 111.07854 1383.6078 8624225 0 -1
-32.929932 36.808842 1330.8805 11848589 0 -1
306.67255 110.58256 1389.8707 8689249 0 -1
241.68399 24.589642 1378.005 9084261 0 -1
290.31726 -212.65588 1383.9442 9413477 0 -1
-293.15768 46.888405 1285.6887 11190404 0 -1
-50.586792 68.810265 1328.0619 11980947 0 -1
128.87738 47.028465 1358.8188 9479274 0 -1
-46.548252 3.1028988 1328.1012 11917460 0 -1
85.086525 97.044334 1351.6593 9676140 0 -1
-240.98401 178.88023 1296.2792 10269305 0 -1
-34.863102 58.969696 1330.7534 11849102 0 -1
-288.92722 264.80524 1289.1162 8821353 0 -1
355.51172 -180.80928 1392.9717 2632989 0 -1
-299.10464 30.85153 1284.4922 10796162 0 -1
351.01917 -207.0367 1394.5236 8689759 0 -1
348.94373 174.93602 1397.725 8229213 0 -1
-330.53214 77.090385 1281.1235 5724732 0 -1
-107.47887 211.03543 1319.9169 9743476 0 -1
-134.57869 -225.07692 1310.0929 9610609 0 -1
167.18207 221.06786 1367.0303 8755811 0 -1
194.73819 -178.98325 1367.8966 9413733 0 -1
73.081894 63.006824 1349.3407 9676653 0 -1
-129.98572 33.100655 1313.9036 16121793 0 -1
-239.09515 263.15353 1297.7098 9019243 0 -1
-62.993561 -10.806372 1325.1305 13428382 0 -1
116.81116 226.79733 1358.4525 9084005 0 -1
-281.07346 290.82465 1290.8511 8558439 0 -1
325.05267 72.79509 1392.7164 8558433 0 -1
107.0059 196.84756 1356.3768 9084519 0 -1
-105.0293 53.01392 1318.3374 14153392 0 -1
341.04623 259.00558 1397.2998 8031066 0 -1
-212.51268 -4.976944 1301.0725 5071670 0 -1
-44.913811 -34.800472 1327.8988 11520400 0 -1
-198.91394 -139.07703 1299.8541 11651723 0 -1
126.83632 199.08047 1359.8467 9149799 0 -1
-239.27446 -39.011623 1293.9072 13428390 0 -1
-262.97723 107.09138 1291.6312 11191429 0 -1
162.93718 79.070908 1364.9227 9084263 0 -1
-182.58435 -63.064972 1299.0671 3561247 1 0
283.24802 138.90979 1386.2375 8754785 0 -1
160.40593 235.00748 1365.9756 8821092 0 -1
122.51572 273.03381 1359.9845 8952163 0 -1
182.71292 38.994579 1367.8248 9347431 0 -1
-134.88849 -192.81493 1310.5667 10072695 0 -1
114.32903 -171.20256 1353.981 9545065 0 -1
72.81839 -192.83449 1346.7512 9675370 0 -1
322.98868 253.11108 1394.163 8163420 0 -1
144.92151 -17.059734 1360.9695 9544809 0 -1
10.921496 -142.97322 1336.4998 10006131 0 -1
-231.58569 175.15276 1297.9279 10269563 0 -1
-296.67407 136.94254 1286.16 10335357 0 -1
248.57803 -111.1096 1377.8365 9150307 0 -1
10.111813 -49.873383 1325.8148 926485 1 0
236.57741 -87.491486 1375.9302 9281639 0 -1
-228.94389 184.98659 1298.4917 10072440 0 -1
248.82596 -214.9485 1376.7988 9479525 0 -1
257.10751 18.792322 1380.4988 9018212 0 -1
-58.474953 -3.1371326 1326.0273 12442524 0 -1
-227.58952 -202.81721 1293.9628 10006645 0 -1
182.89006 134.92377 1368.8728 8952933 0 -1
-180.53023 108.51762 1301.3257 925972 0 -1
-263.03751 182.9747 1292.5944 9678455 0 -1
-86.101318 -110.36113 1320.0146 11585413 0 -1
-83.589455 205.18573 1323.9316 9940085 0 -1
-230.12178 -163.28703 1294.0692 10729596 0 -1
-32.934017 -109.10314 1329.2911 10993025 0 -1
189.16917 -146.79395 1367.1527 9282408 0 -1
354.34924 -44.879131 1395.5427 6120008 0 -1
253.1806 57.151188 1380.2916 8755811 0 -1
-256.89465 179.19318 1293.5652 10006394 0 -1
149.75183 -1.0161842 1362.0343 9347433 0 -1
244.99908 297.09598 1381.1744 8360542 0 -1
-170.83557 152.80986 1308.1675 10861955 0 -1
157.16727 136.99821 1364.4104 9150054 0 -1
127.02419 -142.79015 1356.597 9610602 0 -1
-307.34256 -60.961803 1281.8723 11190404 0 -1
-10.849738 145.11481 1335.8491 10202997 0 -1
-325.12994 125.03639 1281.2308 9874808 0 -1
-291.03299 -40.950096 1284.9656 11190918 0 -1
-262.94299 -59.164295 1289.4802 11915412 0 -1
-301.0889 -149.13216 1281.8904 10400890 0 -1
-208.39435 183.32146 1302.0604 10598015 0 -1
55.227665 200.81131 1347.7029 9281386 0 -1
11.080529 236.93361 1340.4237 9282155 0 -1
-180.95189 -160.86884 1302.6882 11321736 0 -1
3.1824765 5.0523572 1336.6591 11518085 0 -1
-12.978987 -73.115799 1333.1658 11189634 0 -1
-231.13039 -64.957542 1295.0391 12376725 0 -1
-127.57802 10.4663 1313.936 16777177 0 -1
-210.89085 65.082184 1300.652 13292962 0 -1
325.00085 301.12454 1395.0552 7833944 0 -1
-7.2132683 276.96014 1337.8146 9018729 0 -1
-273.34293 270.89832 1291.9357 8756072 0 -1
5.1085968 150.86031 1338.5946 9874547 0 -1
299.07358 -94.826118 1386.6281 9018467 0 -1
-196.96864 -94.988174 1300.6259 13296800 0 -1
-261.26004 -224.91855 1287.7816 9545072 0 -1
-221.46655 -145.26642 1295.8501 10731135 0 -1
-150.90967 235.04611 1312.6809 9611890 0 -1
28.986719 244.80856 1343.5977 9084777 0 -1
159.15451 5.1688647 1363.7103 9347433 0 -1
-198.92465 144.813 1303.239 11323532 0 -1
-5.0281329 6.9794626 1335.3724 11847305 0 -1
92.80806 -1.0058658 1352.1761 9807981 0 -1
-197.88249 19.177704 1301.9098 15007677 0 -1
-219.08459 147.0045 1299.8027 10795903 0 -1
-288.88983 -201.12289 1283.4155 9874290 0 -1
-90.988754 214.74541 1322.6084 9611121 0 -1
63.237343 222.94998 1349.1565 9084264 0 -1
335.0575 -42.989223 1393.4583 8755553 0 -1
-150.88809 233.09154 1312.6605 9742707 0 -1
259.17636 272.84341 1383.2998 8229726 0 -1
218.93977 -90.842194 1372.8826 9281893 0 -1
-256.93976 -61.080177 1290.6667 12244115 0 -1
-300.9538 111.15395 1285.0928 10336127 0 -1
-248.19048 -66.855156 1292.0619 12177293 0 -1
-141.33542 201.1153 1313.9359 10204539 0 -1
100.82993 -96.897003 1352.511 9611115 0 -1
-85.429054 -129.105 1319.9125 11060608 0 -1
-124.89352 292.81549 1317.8591 8952938 0 -1
-73.032005 288.87845 1326.67 8756071 0 -1
272.98624 239.00935 1385.3145 8360798 0 -1
-84.840027 -44.978886 1320.97 13560232 0 -1
256.93036 307.12955 1383.1915 7966044 0 -1
-77.965759 -59.135723 1321.9369 12377757 0 -1
-170.33604 143.04652 1308.0679 11848846 0 -1
310.87097 238.92065 1391.7778 8295005 0 -1
-278.95956 -43.095249 1286.9938 12112274 0 -1
-274.89023 165.12338 1290.236 10072441 0 -1
-72.961044 116.96724 1324.7788 11520140 0 -1
215.17499 -14.771217 1373.0068 9215846 0 -1
288.34744 -181.01147 1383.9235 9150821 0 -1
157.19366 -96.798637 1362.179 9479527 0 -1
23.008232 -28.906 1339.8517 10926719 0 -1
226.53731 297.29495 1377.9817 8229470 0 -1
350.61139 292.91177 1398.5518 7632979 0 -1
155.14848 246.97322 1365.093 8821091 0 -1
-210.9269 171.07126 1301.4668 10795908 0 -1
-241.38419 -3.1697133 1293.949 13824174 0 -1
268.81656 216.86655 1384.2878 8558175 0 -1
225.17346 32.779396 1375.1156 9150054 0 -1
-200.43257 -100.98423 1300.0811 12704667 0 -1
173.01666 235.01424 1368.2151 8755556 0 -1
-82.9534 220.86043 1324.1345 9873778 0 -1
-116.1322 -174.34409 1314.0266 10728833 0 -1
18.948122 140.87955 1340.8282 9940083 0 -1
343.01984 -4.892087 1395.1082 8689505 0 -1
38.759281 -96.899078 1341.8198 10203254 0 -1
229.00464 -8.7964106 1375.4406 9084773 0 -1
121.16673 130.97307 1358.1469 9281640 0 -1
202.80769 29.15414 1371.307 9215846 0 -1
-196.96098 -173.09976 1299.8074 10664574 0 -1
-191.05908 3.0728009 1302.7999 15663048 0 -1
-154.87344 86.874985 1310.2341 14218926 0 -1
-108.96395 -58.949081 1316.5767 13628072 0 -1
26.322018 133.06516 1341.9673 9612145 0 -1
-34.864887 62.826256 1330.7449 11586443 0 -1
326.8613 -210.9639 1390.3887 9084258 0 -1
219.10536 70.827354 1374.4989 9215332 0 -1
-107.09409 16.931767 1317.718 15138752 0 -1
349.34552 -8.8381109 1396.1251 8492640 0 -1
28.918774 49.00193 1341.6733 10400888 0 -1
-69.479103 173.3069 1325.9587 10138489 0 -1
334.87762 99.118111 1394.5647 8755042 0 -1
-137.01111 -149.03395 1310.6971 11519364 0 -1
179.00664 -165.04988 1365.2657 9479781 0 -1
101.01857 106.8554 1354.6031 9675883 0 -1
-140.94701 -181.14897 1309.6365 10467706 0 -1
321.03769 47.179462 1391.7758 8689506 0 -1
225.11687 269.07739 1377.3813 8623457 0 -1
117.21072 -191.17969 1354.4532 9479016 0 -1
-61.198517 -120.97588 1324.328 11322505 0 -1
107.95045 147.0593 1356.0452 9150824 0 -1
338.95065 136.81947 1395.694 8557664 0 -1
-293.11655 -109.0534 1283.7634 10796418 0 -1
190.37701 -96.693024 1367.9017 9347943 0 -1
-165.58263 -116.98047 1305.9545 12311188 0 -1
-92.885674 -35.143715 1319.6613 13824430 0 -1
-279.03 125.05459 1289.1399 10796165 0 -1
140.55225 170.65405 1361.8734 9215592 0 -1
-81.22998 -201.04359 1319.823 9677424 0 -1
175.36095 176.29102 1368.0309 9149540 0 -1
289.03104 106.88534 1386.777 8755298 0 -1
147.04352 -195.10629 1359.5098 9282408 0 -1
-207.07985 110.93259 1301.3615 12769699 0 -1
41.202129 -157.08015 1341.5688 9808237 0 -1
177.11696 158.82748 1368.0991 8887139 0 -1
-225.61185 244.86717 1299.8865 9348207 0 -1
199.05273 103.10385 1371.3496 9018469 0 -1
127.2539 -188.97798 1356.0677 9610347 0 -1
83.195877 231.13635 1352.7183 9084265 0 -1
-208.90869 289.22482 1303.1969 8821353 0 -1
-244.87346 -178.96243 1291.4143 10203510 0 -1
112.93206 84.833458 1356.4081 9282408 0 -1
-61.098701 -63.09304 1324.9585 12572311 0 -1
78.496788 238.88271 1351.9337 9084006 0 -1
151.58653 -20.867371 1362.049 9479529 0 -1
-273.14288 -111.05246 1287.1315 10665599 0 -1
-320.9906 130.9761 1281.8707 9875064 0 -1
239.19293 -151.16006 1375.7241 9216357 0 -1
103.08134 121.21896 1355.1442 9479018 0 -1
213.01541 196.85107 1374.713 8820833 0 -1
-329.43753 51.31591 1280.1478 8421462 0 -1
-67.176285 170.87297 1326.3722 10204282 0 -1
