# .PCD v0.7 - Point Cloud Data file format
VERSION 0.7
FIELDS x y z rgb
SIZE 4 4 4 4
TYPE F F F U
COUNT 1 1 1 1
WIDTH 1146
HEIGHT 1
VIEWPOINT 0 0 0 1 0 0 0
POINTS 1146
DATA ascii
177.70715 131.401 1368.0634 4287142755
225.53058 -64.789909 1374.1447 4287405925
34.49955 -32.788677 1341.8676 4288722554
-45.009293 -182.99434 1326.3912 4288195956
-267.67169 184.77354 1291.8669 4288064633
134.6524 56.880856 1359.8774 4287603561
226.89076 -187.16594 1373.4208 4287603302
-202.91702 37.134369 1301.2927 4293459125
174.95432 -9.2088184 1366.2725 4287471974
158.93553 21.168783 1363.8864 4287669097
-99.780449 -79.799362 1317.9932 4291484066
-96.823189 74.864456 1320.1777 4290895004
335.03326 50.901257 1394.2969 4286879329
-3.1011651 164.83951 1337.4431 4287933298
-132.88417 -135.08443 1311.5698 4289842572
172.90347 -46.905212 1365.4796 4287537767
330.90564 -11.012165 1392.8746 4287076449
179.04935 176.9841 1368.6117 4287076707
265.02737 -206.86418 1379.7704 4287669093
208.45482 -11.009272 1371.8429 4287471461
-228.95645 39.004726 1296.7637 4292475570
-24.123152 -202.28317 1330.0313 4287931758
14.812821 38.970161 1339.1858 4288985726
-1.171367 66.962982 1336.521 4288984447
-178.9308 106.98152 1306.3369 4291158942
277.05548 112.93606 1384.8679 4286945119
106.8065 -89.126266 1353.7175 4287735404
-35.177223 126.71641 1329.2035 4279312660
-265.08795 -88.939316 1288.9106 4289382018
-112.98705 16.921389 1316.6172 4293721787
178.80753 -131.05827 1365.6569 4287603303
177.09589 38.961903 1367.0568 4287602790
-187.41304 27.018597 1303.9294 4294311884
278.99146 -44.791794 1383.7245 4287274083
58.994556 25.069956 1346.7036 4288065137
234.20207 -27.607046 1375.9832 4287602537
38.893581 177.09134 1344.6127 4287603820
346.88022 -42.834778 1395.4758 4286748254
96.810066 23.004566 1353.1135 4287866990
115.24717 -48.914673 1355.5931 4287603818
-269.07239 -217.1297 1286.6908 4287735919
48.384312 -23.224943 1344.0802 4288720503
200.39441 -55.103664 1369.9297 4287340389
239.00195 14.782252 1377.3243 4287339619
-172.87143 -79.017654 1305.1135 4292211620
266.96555 -29.042078 1381.7344 4287077217
315.06702 -102.99357 1389.387 4287011424
34.742779 -37.157509 1341.8182 4288722298
37.179878 -23.087896 1342.343 4288722805
19.007771 132.94916 1340.8706 4288130677
130.95341 -60.733482 1358.1556 4287800682
303.03067 29.205095 1388.5587 4287011424
208.9995 79.21051 1372.8019 4287274598
-120.1606 -114.28802 1314.0791 4289974926
-309.09851 -180.92497 1280.1211 4288130675
60.238251 152.41931 1347.9833 4287472236
-81.120338 52.906204 1322.624 4291486883
-171.83026 -195.04895 1303.9631 4288263034
316.87354 21.075609 1390.8268 4287010655
188.99725 60.970016 1369.282 4287340133
-76.97905 -166.84821 1321.0341 4288458870
-54.850224 -51.180183 1326.1534 4290369685
-82.937439 -49.050701 1321.1244 4290897056
129.19644 -175.10541 1356.5996 4287669097
-245.08304 -1.1794201 1293.3879 4291226790
-191.02879 -163.1274 1300.8853 4289249665
-329.63034 60.885113 1280.2458 4287996022
-220.9848 103.08218 1298.91 4290697113
138.94281 39.204254 1360.507 4287668843
111.22752 -200.92587 1353.1829 4287537768
-87.878014 -86.527832 1311.984 4278723349
-163.03955 -72.908897 1306.9828 4292474798
132.79866 -111.01692 1357.7903 4287734891
-184.9827 -128.85452 1302.4091 4290498963
36.998047 75.112724 1343.4456 4288327283
350.92981 -94.9953 1395.6478 4286616669
158.91557 164.81714 1364.9358 4287076964
350.9259 -100.89732 1395.4337 4286682718
341.70599 -77.115761 1394.1129 4286879327
-111.01015 -133.08179 1315.4208 4289775755
-288.9436 -184.93224 1283.6932 4288261748
219.08656 62.810177 1374.5879 4287274597
126.65972 -212.92601 1355.8336 4287668584
91.334694 -167.13872 1350.1481 4287669608
-160.98189 -223.01958 1305.6064 4287866736
-88.508522 -27.574133 1319.9252 4290958760
301.04861 -115.19 1386.8301 4287142498
227.77936 78.981934 1376.064 4287076963
247.01671 158.71722 1380.1682 4286748254
-48.976337 175.13647 1329.6168 4288196469
-56.904411 -200.96042 1324.2588 4288064368
237.12238 102.80341 1377.7736 4287076962
337.22934 19.225368 1394.3173 4286879070
-142.69261 66.722046 1312.1169 4292935094
-195.09566 -141.13113 1300.4525 4289644939
258.91476 12.894799 1380.7981 4287142755
-159.6472 134.45906 1309.9995 4289709198
186.83913 37.035751 1368.6671 4287406183
-144.946 -138.85503 1309.2732 4289579400
82.827896 177.13046 1352.2083 4287537000
188.70915 124.8992 1369.8137 4287143268
122.81303 -82.946938 1356.5205 4287800426
-324.24475 -230.51318 1282.4814 4279704599
182.24129 -149.12234 1365.9868 4287603559
254.90091 -6.9601865 1379.8708 4287142755
343.13376 30.978441 1395.3994 4286813535
29.108265 189.19424 1343.0775 4287669356
338.09796 187.00488 1395.9392 4286353244
340.84088 -61.219826 1394.1869 4286879582
5.1748462 -220.94273 1334.712 4287735148
81.059906 -115.10137 1348.9803 4287997807
201.18016 -219.18024 1368.6149 4287932008
350.92557 -201.06213 1394.5544 4286945630
179.1049 31.018686 1367.1995 4287340646
126.90829 13.089566 1358.2207 4287735148
-234.95563 144.93893 1297.0186 4289577608
104.00047 -19.154015 1353.979 4288194926
78.807358 -204.87141 1347.5125 4287603305
219.78377 -180.88075 1372.0449 4287669349
109.17767 -190.93346 1353.0554 4287668582
213.08652 -14.765043 1372.5953 4287405925
-296.65915 -26.973932 1284.0742 4289775242
161.17387 -82.926376 1363.0173 4287603559
175.50851 182.92751 1368.0785 4287076706
-148.61716 -16.793489 1310.1626 4294115265
-169.56244 -59.093395 1305.9337 4292278194
-157.13019 66.828697 1309.6564 4293196982
-222.84401 189.02435 1299.6595 4288328569
-207.03621 110.80555 1301.4302 4290894749
166.99091 -200.79941 1362.9995 4287603302
-254.89516 -194.87653 1289.4691 4287999605
3.1826258 13.029213 1336.7941 4289249665
327.0112 103.07922 1393.4137 4286944864
-101.61972 -34.628365 1317.9719 4291622308
304.94598 77.091225 1389.2435 4286879841
301.11926 -176.94861 1386.1737 4287340132
218.71695 -201.11496 1371.9135 4287669605
270.86804 176.88406 1384.3188 4286813535
96.060791 -73.027679 1351.9736 4288194159
-3.0964389 149.41264 1335.2349 4282736456
164.48137 -49.562302 1363.9952 4287865962
-108.80167 86.987877 1318.0966 4291421089
-205.11092 17.037802 1300.6559 4294246339
-285.14053 163.13312 1288.5154 4288392825
36.949383 184.95024 1344.391 4287471980
257.1138 2.9487686 1380.3882 4287076704
98.2257 94.239372 1353.9802 4287406698
-198.95479 168.8233 1303.5947 4288986498
-129.17136 -182.79875 1311.713 4288788091
-62.650696 65.514107 1321.6554 4278459923
-313.78519 45.665962 1281.989 4288854913
40.992294 126.96995 1344.5466 4287998577
155.21321 -113.13113 1361.6252 4287669353
-166.84221 32.999016 1307.5287 4293918663
201.20377 7.2010736 1370.8533 4287536742
329.15811 192.91512 1394.5931 4286550877
-259.34933 -91.050674 1289.8453 4289906568
346.95319 -68.995735 1395.2687 4286747998
-27.18701 -127.07906 1330.1643 4288591992
-256.97565 -75.005402 1290.4951 4289972620
-270.99533 29.002939 1289.3319 4290632347
-205.04301 188.9572 1302.667 4288853371
65.692482 -6.9383187 1318.2631 4285094419
-27.561909 43.216499 1328.8328 4281881146
178.81198 80.78508 1367.6995 4287208805
-203.10989 87.019615 1301.7975 4291618465
-212.86429 -201.12213 1296.6343 4288393080
-301.09189 -161.12732 1281.8248 4288458874
-262.97049 145.17534 1292.1726 4289051262
94.929283 72.802383 1353.3352 4287800685
-53.558041 -80.921043 1325.9403 4290171026
-67.60994 -52.877361 1323.8625 4290959254
-105.12843 -188.98201 1315.8376 4288393590
276.92413 -83.219185 1382.8225 4287143268
95.338875 -50.863861 1352.0476 4287800936
-323.03265 140.95564 1281.7762 4287998840
275.11981 -204.91121 1381.5182 4287472228
39.157646 39.097874 1343.3314 4288459384
52.706821 -143.13208 1343.8148 4287866990
-44.251534 -42.881134 1328.093 4291154581
249.1129 -20.898535 1378.7821 4287142756
-78.917931 120.97981 1323.6252 4289775242
157.06949 120.78922 1364.374 4287340134
-74.725113 -9.0096016 1315.6852 4280104227
-232.97305 -42.981487 1295.0608 4291158430
-8.8866987 -126.87392 1333.2073 4288525431
100.75172 -18.897125 1353.2974 4287997805
-44.754391 119.06844 1323.0579 4279248150
-297.07477 -52.940556 1283.7561 4289774983
351.0675 15.11412 1396.6353 4286682205
-184.24271 151.71225 1306.0498 4289511818
87.450371 87.146278 1352.1735 4287669357
63.749866 -111.1328 1346.0692 4287997549
250.9136 28.910507 1379.5574 4287142755
10.925658 -30.986423 1337.7036 4289315456
335.0715 8.9254589 1393.8136 4286814047
-18.998928 19.022131 1333.1293 4289908110
14.139668 136.76474 1339.9729 4288130679
-314.95389 -200.86778 1278.9419 4287932531
-132.95331 -161.02718 1311.2096 4289117570
295.00589 173.07413 1388.4086 4286747998
-90.184807 140.89006 1322.051 4288657534
199.04826 162.93549 1371.7913 4287011427
281.07202 186.98387 1386.1426 4286748255
-189.15329 94.976425 1304.4353 4291092633
-15.180945 -189.04503 1331.5884 4287933038
-223.04475 14.890463 1297.5177 4292671919
344.99173 134.91925 1396.7174 4286550878
-215.04134 162.85446 1300.6251 4289314690
260.92535 18.877686 1381.1222 4287011424
65.280037 119.25411 1342.3151 4278656527
-243.81996 -139.46555 1291.972 4289247874
-300.97464 106.93305 1285.1355 4288854658
-123.59833 127.49119 1315.9725 4290499988
261.1438 125.09172 1382.1622 4286813792
-8.8897314 33.05302 1335.0466 4289774469
-61.011791 105.05354 1326.8695 4289775247
168.98381 -160.76779 1363.6027 4287734889
88.78508 -22.968349 1351.1812 4287867245
-99.04129 -6.9416208 1318.9014 4292605361
38.829281 -194.84763 1340.9165 4287735148
-42.959469 -29.093697 1328.4553 4290237844
-272.41 113.11749 1290.1099 4289249671
-129.65326 23.012812 1313.8781 4294442968
-39.132587 -124.91353 1328.116 4288919930
-273.02411 58.976376 1289.3055 4289315206
22.329498 -24.981081 1339.9128 4288657530
-74.877945 -39.042053 1322.7932 4290831009
-246.93005 -25.010796 1292.8925 4292077479
-91.154564 -142.96541 1318.6989 4288723838
182.68698 15.131289 1367.8857 4287340903
-43.027889 -138.91922 1327.2805 4288787835
-0.58903205 188.95166 1338.0428 4288063344
-196.59531 -154.9502 1300.0848 4289183878
-144.11052 -99.313896 1310.0137 4291288987
225.06238 -22.806812 1374.5568 4287405669
-11.026172 144.80527 1329.1531 4278853138
-3.1002584 84.893982 1336.5897 4288854397
108.82809 -57.168587 1354.3987 4287932268
107.23402 -22.841934 1354.3982 4287932012
288.90384 -197.07898 1383.875 4287406435
-139.15472 -96.882629 1310.7466 4291290528
-50.834705 -215.02028 1325.1008 4287866478
-64.958809 152.91371 1326.51 4288526204
-266.52728 22.77507 1290.0681 4291091866
-17.101007 89.103996 1334.2097 4288854910
84.990959 -123.16748 1349.6096 4287997805
348.88071 151.12096 1397.516 4286550365
-321.00229 -70.991234 1279.3619 4288722297
-215.017 86.947739 1299.7233 4291159201
-311.12344 82.954895 1283.0735 4288592256
55.748711 -180.54414 1344.0725 4287669353
237.18297 135.16141 1378.1783 4286945633
88.856995 18.815666 1351.7227 4287734638
-304.96793 -15.046458 1282.8783 4289775757
104.8784 -119.10712 1353.0044 4288063597
315.0094 128.97464 1391.4796 4286879329
-24.93174 -148.87344 1330.3418 4288524151
45.154362 -170.92062 1342.2428 4287931757
-10.818346 43.184425 1334.6178 4290169223
294.92661 -158.90134 1385.2588 4287274596
-275.01678 126.92577 1289.8367 4288986243
69.156921 -124.82272 1346.7319 4287998061
234.95897 93.189278 1377.4097 4287011426
-277.10059 -44.983624 1287.2776 4289577860
69.141312 -113.07745 1347.0035 4287997804
-41.048561 -39.196362 1328.7156 4290565520
-252.97343 -29.011084 1291.8079 4291223200
294.93283 184.91402 1388.5509 4286813536
-10.127164 154.89151 1336.0112 4287868019
281.09387 90.955658 1385.2808 4286945377
-183.37988 -192.85788 1301.9274 4288394363
23.172497 151.1386 1341.5931 4287538029
76.956192 -3.2006795 1349.4429 4287669613
87.137367 -174.93617 1349.3572 4287669097
-148.46979 -21.166718 1310.0955 4293656528
244.18385 188.0056 1379.9698 4286814302
-25.300686 -177.10275 1329.907 4288194929
-115.08268 -38.87925 1315.7225 4293328569
210.92064 -144.86528 1371.0527 4287734118
-32.83334 165.18083 1332.097 4288261492
-132.89052 112.90662 1314.3086 4290763157
238.81201 -134.99495 1375.8485 4287603045
-171.09216 59.179054 1307.1388 4293131449
183.95854 11.902371 1368.031 4287734120
-320.94724 -54.994152 1279.5066 4288985728
187.02574 149.01482 1369.705 4287142756
241.13191 -154.91347 1376.0929 4287537767
-107.87704 56.82539 1317.9059 4293523638
-178.89386 -24.901949 1304.6699 4294836170
-13.448771 -183.1102 1331.7834 4287932783
186.9886 112.89431 1369.3944 4287143269
-119.02242 68.962067 1316.2666 4291554985
244.94043 -37.010521 1377.8137 4287340131
144.35258 -117.16116 1359.9958 4287800424
100.79573 -104.90105 1352.4624 4287932013
242.94574 102.92692 1378.9385 4287076708
-56.940903 -63.067245 1325.6332 4290171280
19.213131 90.980804 1340.4459 4288328568
256.47079 -31.150867 1379.9674 4287208547
141.74011 146.38455 1362.0081 4287405671
352.87082 -129.04172 1395.4662 4286682462
340.31445 140.62213 1395.9089 4286682206
324.8736 -24.777674 1391.6803 4287011424
29.061302 184.94281 1343.0256 4287603307
-248.32855 -67.11924 1292.0842 4290367121
-230.81828 176.99002 1298.1071 4288525693
129.07751 181.01889 1360.135 4287339878
130.8958 49.017231 1359.1757 4287865961
-248.97456 -199.09351 1290.4073 4287999092
126.87691 154.99843 1359.579 4287405928
-320.89978 16.988413 1280.5283 4289117314
246.75035 147 1379.8544 4286879585
316.8992 98.942947 1391.5232 4286748256
-282.90115 100.9183 1288.1671 4289313924
-217.12372 -24.822777 1297.9003 4292341672
-329.17963 -109.12184 1282.0571 4278913031
326.86246 -213.01508 1390.2482 4287274336
-165.73373 49.170006 1307.9744 4293066680
97.287537 106.80557 1354.1198 4287669100
330.98199 19.140682 1393.1442 4286879584
268.89011 -72.983765 1381.5614 4287077730
352.67474 -6.8929982 1396.4171 4286681697
218.85991 -216.8172 1371.6234 4287735144
-132.87643 180.87399 1315.1179 4288789121
342.98135 -24.868454 1394.8536 4286813278
-98.96315 182.93054 1321.0278 4288328057
321.09641 -32.922253 1391.1206 4287011426
168.62614 75.088387 1365.9185 4287405927
-308.96054 149.13614 1284.345 4287933558
-297.70499 -197.08365 1281.9301 4288195698
-164.92877 21.123335 1307.6689 4294115277
135.57133 52.635864 1360.0309 4287734378
-293.69296 -85.223969 1283.964 4289577348
-264.93808 -91.025665 1288.9373 4289512582
99.030418 106.83129 1354.3783 4287669611
253.51758 -183.05602 1378.0583 4287603814
-247.12135 40.853554 1293.6683 4291749030
262.94757 55.23019 1381.799 4287076961
-226.72229 -228.69974 1294.9716 4278191878
261.0957 74.845161 1381.6219 4287010913
178.74634 201.17439 1368.8262 4286945635
190.86456 172.79031 1370.4928 4286945892
-102.85936 26.971849 1318.5811 4293196727
206.96881 -164.92465 1370.2024 4287603301
227.15533 -38.842297 1374.7504 4287340645
-284.86145 -127.05614 1284.9 4288722813
-55.081772 128.80829 1327.8763 4289380483
-97.019386 -226.99289 1318.474 4278648832
207.0114 124.85976 1372.9409 4287077219
-117.08752 163.02771 1317.6821 4289314948
326.98666 -57.102417 1391.8926 4286880098
-48.908607 148.82391 1329.3226 4288525433
37.567814 129.60735 1344.0096 4288129391
-101.0225 -182.82361 1316.6049 4288524659
96.803955 29.12825 1352.9651 4287932271
103.00193 -20.866714 1353.7737 4288063341
-311.02545 -184.95972 1279.8162 4287933296
-225.06514 -40.878475 1296.4865 4291618206
-326.80563 -25.138205 1279.1709 4289051009
-28.98848 171.13365 1332.9076 4288326771
-289.10806 110.98635 1287.2397 4289117313
116.80654 -61.265553 1355.6702 4287997805
331.0372 -218.78877 1391.1014 4284770622
337.04297 90.9515 1395.0778 4286813535
129.64331 153.07639 1360.0549 4287537256
-86.971672 -13.167425 1320.9391 4292407469
-323.40265 1.0611047 1279.8849 4288789376
-164.94768 84.888626 1308.4144 4292473005
-83.875404 -165.04279 1319.9366 4288721274
-55.015129 -155.16518 1325.0609 4288394104
81.157738 118.8378 1351.3207 4287669355
-70.965866 80.845703 1324.8192 4290171795
43.107502 -118.99582 1342.4672 4288064110
-227.25473 -214.96329 1293.884 4287867503
-171.00894 -80.932518 1305.4524 4292145575
-326.02084 -198.06491 1279.2396 4284700728
271.09955 111.08081 1383.6365 4286945375
-155.02948 -16.877295 1308.936 4294574040
-124.87802 114.90943 1315.7035 4290567060
314.92987 -121.13359 1389.223 4287011937
67.090416 -50.988815 1347.2212 4288195183
297.03372 -76.940292 1386.3857 4287142753
-248.85098 171.13632 1294.9641 4288393852
-148.94392 -48.976738 1309.6971 4293656250
-78.936287 125.09114 1323.7432 4289578375
50.375584 109.13584 1345.925 4288063856
106.76234 -67.009438 1353.8557 4287866986
292.9769 12.90801 1386.6267 4286945632
315.1442 -64.982536 1389.6953 4287142498
41.397072 75.154198 1344.1179 4288392819
-33.551712 143.11571 1331.9214 4288327798
134.89832 -89.033592 1358.4943 4287800682
30.365871 -133.24759 1339.9419 4288064372
124.93582 -124.92416 1356.3706 4287866219
323.01025 87.104187 1392.5508 4286813792
85.167809 -178.84389 1349.028 4287669864
-109.1077 91.10878 1318.1592 4290962336
-279.42215 -131.05037 1285.9329 4288788350
78.400887 47.218964 1349.8765 4286945135
153.17941 -198.81801 1360.5731 4287472488
-261.56372 -214.10518 1287.9795 4287997808
-90.988907 -11.010523 1320.1479 4292278701
-268.87262 132.97256 1290.9775 4288919938
164.80389 -85.015312 1363.6722 4287603814
218.82436 -188.94336 1371.8564 4287669863
-44.574562 159.21365 1330.066 4288195443
-270.98599 168.98883 1290.9849 4288196474
130.79327 -22.930094 1358.5022 4287603817
96.792351 -59.062851 1352.272 4287932267
-316.96414 19.100624 1281.2574 4289248639
-169.50323 -69.144501 1305.8618 4292866732
351.50793 174.93677 1394.6836 4279640086
-184.87137 84.998123 1305.033 4291619237
-239.06184 -125.02893 1292.9476 4289380482
-245.52119 42.914433 1293.8864 4290896031
113.13609 -44.897881 1355.2809 4287735661
-12.983757 19.036589 1334.1989 4289644423
251.01787 167.0378 1380.775 4286813536
178.44821 111.11848 1367.9047 4287208549
-44.868694 110.91984 1329.6476 4288983680
36.172035 168.87682 1343.9824 4287800942
295.03958 -145.10663 1385.3063 4287339875
-157.58638 110.82446 1309.9633 4291616673
60.860748 -160.96667 1344.9438 4287603819
75.215752 121.19066 1350.2965 4287800170
-87.009445 30.84201 1321.3455 4292013993
91.747696 197.67055 1354.038 4287406701
-118.38412 -146.66408 1314.0297 4289053058
-230.91039 194.63812 1298.2291 4288327548
-63.033421 39.082073 1325.6642 4291156634
179.44315 -91.133324 1366.1185 4287799910
233.16898 60.954659 1376.8134 4287142756
-72.811485 145.02025 1325.045 4288986237
97.608315 104.99755 1354.0919 4287669356
-235.03438 47.029324 1295.7336 4291619240
177.173 -193.09157 1364.7264 4287668839
11.000632 169.05409 1339.7772 4287998322
-139.15854 29.027548 1312.3694 4294377418
35.00264 -76.991119 1341.4578 4288524918
160.99442 166.8988 1365.4479 4287011429
109.05378 -167.10434 1353.1884 4287603816
-261.00385 -95.062088 1289.5604 4289643657
-191.11742 -88.861702 1301.7583 4291027869
-123.11122 11.185643 1314.7821 4293525446
160.93652 83.029305 1364.7756 4287602791
66.780159 -176.92235 1345.8815 4287734378
122.7672 1.2023455 1357.3832 4287734890
-34.838173 -88.81353 1329.1323 4289380738
107.04462 112.88854 1355.7448 4287472233
-109.01437 36.984787 1317.5526 4293524413
114.65824 -222.60825 1353.6656 4283385385
-104.83008 -121.16947 1316.6312 4290170514
10.976974 137.19394 1339.4061 4288064369
-56.859596 56.895042 1326.9121 4290237073
215.66748 -114.84659 1372.0984 4287406436
-5.0273399 -22.95698 1335.1536 4289708935
68.772499 14.91986 1348.0562 4287604593
-288.87018 129.03772 1287.5309 4288590974
-146.50893 117.24979 1312.0712 4291681954
354.60532 -107.09561 1393.1937 4278916100
-95.018417 -35.135246 1319.3358 4291882931
-178.93953 -44.887535 1304.4347 4294246083
80.973045 -97.099976 1349.2177 4288063087
-8.1809549 119.08088 1336.0223 4288328822
171.14296 -136.86038 1364.21 4287472231
291.10535 -123.09846 1384.9246 4287274339
-59.372036 -183.17186 1323.8777 4288195956
-58.983215 -99.144012 1324.8824 4289644423
-32.912693 -77.017761 1329.458 4289052546
-157.19597 -136.99036 1307.239 4289973898
-140.95773 -26.889757 1311.334 4294508479
40.871681 -129.13524 1341.8828 4288130159
320.87411 -162.9034 1389.8944 4287274339
308.2579 83.014381 1389.9043 4287142241
51.135387 -191.04683 1343.0555 4287668842
200.80072 -180.77809 1368.8541 4287800681
296.87628 -211.05678 1385.0355 4287406179
-205.02715 -122.94424 1298.8981 4291024536
-76.994476 -173.12657 1320.9037 4288327797
208.97823 75.203667 1372.7831 4287339619
-36.901211 -212.94637 1327.6343 4287800684
6.5064864 -125.02298 1335.8966 4288788089
280.94873 151.09395 1385.7661 4286879328
-197.02055 141.0056 1303.5767 4289579659
38.856934 -209.12006 1340.6564 4287669353
282.93704 86.921959 1385.5695 4286945378
-226.88696 83.082184 1297.6262 4291290276
-274.99982 41.027191 1288.7441 4290171283
-130.18585 47.091354 1314.0854 4292476347
245.0715 -69.140961 1377.6354 4287208547
223.16628 50.810192 1374.9717 4287339621
-6.9550338 -42.981216 1334.478 4289577348
-243.99927 18.887712 1293.9396 4291684000
325.23209 2.7816489 1392.1938 4286945376
-230.96806 144.96559 1297.619 4289446279
-241.99237 -232.03165 1309.7375 4278978816
-145.02126 -150.84328 1309.2987 4289840519
272.86884 -127.18288 1381.7677 4287209059
-158.83182 18.994551 1308.694 4294770644
-326.15268 -181.31523 1279.0079 4284048194
-60.908245 -219.15535 1323.2737 4287800684
162.92892 -129.19934 1362.8616 4287734376
57.087368 183.04698 1347.8113 4287603307
-19.019855 76.971107 1333.6279 4289446019
188.99947 -219.20689 1366.4698 4287800678
271.56857 -73.025192 1382.0969 4287208546
334.66174 -196.8708 1391.8705 4287077728
44.842197 193.08469 1345.8876 4287537770
118.754 -90.904724 1355.6627 4287931500
314.87305 -125.15941 1389.0291 4287011425
117.24683 185.17433 1358.1512 4287274599
-236.72195 -59.032906 1294.2561 4290697880
210.89763 -47.145264 1371.8455 4287275108
-99.030411 -11.000969 1318.7516 4292934842
-163.97697 -141.25537 1305.9641 4289709451
158.79572 -113.2151 1362.4257 4287734378
-110.899 -215.05135 1314.4985 4287801456
-228.97464 47.045532 1296.7478 4291949229
209.31889 200.70128 1374.0964 4287010914
-135.0197 63.131447 1313.3884 4292475319
49.01923 92.821579 1345.5649 4287933298
-274.25415 -26.931231 1288.0863 4290172821
-151.02255 -208.91669 1307.5427 4288261749
-137.09447 175.00435 1314.3927 4288986240
58.806507 -121.20967 1345.0125 4288064111
-77.742126 -71.117836 1321.9086 4290960037
23.087626 -108.92756 1339.0529 4288459124
305.03018 172.89946 1390.1465 4286813280
-161.13095 -26.84198 1307.8784 4293132231
227.14043 153.13475 1376.6852 4286879584
-39.568298 123.34524 1323.6134 4279116566
314.94775 144.90057 1391.5988 4286748256
17.710184 147.55678 1334.2505 4278655759
238.83305 -91.17746 1376.33 4287274851
84.143417 63.164627 1343.7019 4278853394
-286.96118 106.96321 1287.5294 4288920452
219.02573 56.785969 1374.344 4287339876
-130.84808 -105.0256 1312.1582 4290697118
46.214832 186.99663 1345.9403 4287603309
-273.2467 -217.06096 1285.8685 4287801199
-86.973999 111.00296 1322.219 4290237073
290.99509 204.85429 1388.0673 4286681950
-145.49031 -88.973686 1309.8688 4292013479
-110.9306 50.832916 1317.3125 4292540595
-116.99297 -67.010979 1315.1125 4292078760
41.09922 -62.953247 1342.6886 4288524916
45.027943 41.077278 1344.3652 4288459383
-246.92432 -50.965218 1292.4932 4290894234
-271.78677 87.276192 1289.9584 4289248386
241.02344 -151.16425 1376.2413 4287471972
309.12219 205.08092 1391.1786 4286747742
286.85382 -183.17921 1383.6702 4287471460
245.46336 183.08072 1380.0732 4286813794
-232.91861 168.90564 1297.6866 4288657278
-134.9061 -85.003563 1311.7229 4292471465
260.9743 157.14037 1382.3477 4286748256
252.92087 -39.030521 1379.2257 4287274083
-246.83586 -136.83395 1291.5338 4288920194
-90.950127 -82.9272 1313.5183 4278985748
3.1892238 -86.82795 1335.869 4288657529
218.8674 -70.805481 1373.0393 4287471717
-17.122318 130.84756 1334.4083 4288459898
45.227127 155.05795 1345.5328 4287800685
249.01149 71.217278 1379.5586 4287076705
-225.15414 146.93817 1298.6907 4289315205
281.0614 -169.18864 1382.8085 4287340643
211.2874 160.7928 1374.1278 4287142243
-76.883934 -131.14931 1321.3707 4288723331
9.3957539 31.110525 1338.0874 4289182845
102.83675 -98.901955 1352.947 4287932267
129.13852 112.78654 1359.4686 4287603049
-150.91995 43.033985 1310.3029 4293656257
135.03476 165.18774 1361.0403 4287471206
178.92345 -218.80579 1364.621 4287800165
36.983913 62.931854 1343.3021 4288459126
257.45615 -20.861715 1380.1499 4287142754
211.09825 -81.206886 1371.6202 4287603302
332.97467 -159.05544 1391.7007 4287077474
30.166037 -129.00111 1339.9556 4288392561
61.710876 -25.014904 1346.7323 4287800946
-15.645186 -147.14914 1331.8979 4288327796
186.69112 -37.221615 1367.9653 4287472229
-303.117 -63.04361 1282.5413 4289511811
287.05286 -108.84783 1384.4918 4287208802
121.33904 -97.21843 1356.1067 4287801192
-72.9505 179.04987 1325.5179 4288393080
273.02737 139.12839 1384.2935 4286813791
-42.453388 -67.178391 1328.0857 4289908111
30.860373 -80.834457 1340.7113 4288590453
354.56995 -213.08141 1394.5264 4287075933
285.09821 -97.004791 1384.2111 4287208548
264.33679 -178.82816 1379.8358 4287406437
71.117188 -117.02058 1347.1929 4287932014
-71.823586 -167.51251 1321.9645 4288656758
-149.02354 193.14172 1312.5138 4288591483
138.97812 51.060822 1360.6375 4287800427
-92.832298 -223.07843 1317.4462 4287603309
-100.89085 -207.01541 1316.2858 4287932782
115.20272 140.78697 1357.3787 4287471465
-153.69528 32.798653 1309.9121 4294377429
28.59234 -112.80504 1339.9358 4288393331
195.20274 -118.9216 1368.5024 4287668838
182.83167 -117.16575 1366.3872 4287734119
157.08533 -11.158186 1363.0449 4287669098
-128.87584 150.96126 1315.4718 4289972365
10.929402 -162.85896 1336.3965 4288260978
-284.49435 -48.972885 1286.0432 4289316741
-173.16089 -150.9296 1304.1656 4289578886
140.75717 -72.76342 1359.7917 4287669609
-103.27063 -213.04729 1315.9308 4287800942
-105.13804 -201.12329 1315.6866 4288064884
-281.04099 97.038254 1288.4454 4289052291
138.98952 -110.84475 1358.8586 4287669608
-52.921066 -205.15022 1324.8096 4287998575
159.19092 132.81041 1364.8398 4287274342
158.86172 156.80872 1364.9666 4287077476
322.93671 -98.806862 1390.7698 4287011681
304.88913 32.772335 1388.6838 4286945634
-211.0325 83.172707 1300.438 4291552934
-44.860367 163.01167 1330.1302 4288196213
156.15263 96.867439 1363.9348 4287209574
216.8665 171.07205 1375.0577 4286945122
297.03152 14.949756 1387.3788 4287011426
-267.13983 103.038 1290.929 4289183362
70.455635 14.950799 1347.4072 4286418014
-203.0103 70.861374 1301.6414 4292344243
5.1190405 -52.965538 1336.5233 4289248897
-233.00558 -63.063923 1294.8416 4290827672
8.5723095 15.019306 1337.908 4289052803
117.06979 195.17839 1358.238 4287274342
-277.75201 8.7564421 1287.9313 4290631578
273.91257 -220.51488 1381.7919 4280363535
55.189354 125.88731 1340.4753 4278722064
-87.027214 179.00684 1322.9595 4288656249
25.091646 -168.95596 1338.6576 4287932014
-136.98193 -195.13237 1310.1895 4288393336
122.90855 -115.01903 1356.3143 4287669865
-76.616608 -19.055729 1323.2295 4291221402
-283.11426 -186.87093 1284.5148 4288129907
283.01306 -4.8364673 1384.8042 4287076959
73.456787 -84.353424 1348.0916 4288063855
-68.38665 -130.40788 1313.8705 4279248665
130.9413 -211.07431 1356.5948 4287668840
266.52414 198.78278 1383.7819 4286616670
-215.04236 -119.06036 1297.2421 4290433685
259.83215 125.06882 1382.0278 4286813793
116.88972 -118.84692 1355.1427 4287931244
-239.1248 97.023438 1295.6841 4290368921
-312.93607 -79.02636 1280.7565 4288854654
-11.533955 -14.493657 1333.9586 4289513601
326.92065 67.190186 1392.9895 4286879328
312.4072 10.920416 1389.8484 4287010657
137.62671 13.535028 1360.0356 4287734632
-36.9935 -86.864525 1328.8076 4289578118
208.88138 -202.7374 1370.2413 4287669349
-169.5153 -225.0481 1303.8951 4287865970
-113.05104 192.87653 1318.6729 4288590202
-234.9214 178.9639 1297.4417 4288853116
23.142517 -170.86186 1338.2485 4287997806
-294.67453 -59.002811 1284.1338 4289315975
-231.6156 170.67934 1297.9325 4288591486
306.99564 -149.03906 1387.4413 4287143010
-95.044228 -170.8578 1317.7555 4288721787
269.24857 -219.53578 1379.8936 4287598435
21.122738 26.878075 1340.2013 4289051004
-87.693596 -63.067993 1322.3423 4284183876
43.220676 -185.11697 1341.7179 4287734890
62.793011 -144.80652 1345.4614 4287473259
103.78177 200.77391 1356.0311 4287405414
-101.03747 57.110966 1319.293 4291555748
-168.97418 -188.85643 1304.592 4288853626
-22.85593 -118.91546 1330.9772 4288853885
122.77727 11.04219 1357.4705 4287735658
338.94061 -169.07838 1392.9532 4287011423
329.00861 -211.02582 1390.5712 4287208033
-184.96806 -194.84348 1301.6959 4288656506
322.18671 -169.01401 1389.9336 4287208801
-186.90051 13.028752 1303.8062 4294639565
173.10699 66.770119 1366.6211 4287405926
-273.46335 107.03525 1289.8622 4289183876
-195.02162 127.14856 1303.7799 4290368658
23.143291 125.19547 1341.5073 4288261491
-72.985664 -184.83981 1321.5626 4287998322
77.510071 103.16298 1350.8789 4286747752
-150.41466 -166.96481 1308.1094 4289248384
-237.03728 -164.97556 1292.858 4288525947
-323.68973 17.725039 1279.9742 4288920191
149.00714 -57.098873 1361.4099 4287669097
195.09845 -92.951515 1368.8158 4287537766
-1.4520278 3.0515406 1335.9161 4289512065
150.99756 -36.843746 1361.7935 4287800169
26.94812 -26.934767 1340.6033 4288787833
320.88965 -173.09377 1389.7532 4287274081
67.679993 115.79082 1342.1542 4278198289
49.055672 110.93281 1345.7754 4287932783
-157.0524 48.964382 1309.4189 4293262779
69.147758 69.088913 1348.7853 4287866735
-317.04459 -200.8468 1278.5707 4287736175
-23.934629 44.104801 1326.0626 4284897061
-237.06558 73.07003 1295.7281 4291091612
155.19958 -107.18259 1361.7614 4287669353
-212.99364 -213.12653 1296.5181 4287998579
-282.98254 11.076334 1286.9694 4290237079
-174.77103 -133.07579 1304.1676 4290040206
168.57465 83.128098 1365.9264 4287536486
-206.9296 96.992523 1301.3129 4291093665
246.89613 49.093727 1379.0671 4286880097
-51.078568 -24.984547 1327.0789 4290370200
239.20728 -32.905388 1376.8889 4287209060
-248.90071 -164.83969 1290.7042 4288591227
316.90448 -202.81099 1388.7494 4287274594
89.031578 96.817818 1352.519 4287669356
207.05774 -103.16428 1370.8767 4287668839
-93.03141 -45.112 1319.272 4290763684
143.01334 -101.0264 1359.7657 4287669096
-277.13837 3.0675983 1287.813 4290303128
315.71707 157.29761 1392.0314 4286617183
-116.44859 14.849728 1316.0594 4293918657
201.10207 101.13218 1371.6295 4287143011
-319.07471 35.063244 1281.0254 4288591997
-292.89606 -54.834209 1284.4297 4288986751
-8.8838644 -92.971786 1333.6008 4289117052
-298.88889 67.167656 1284.965 4289183621
-147.12448 26.86318 1310.8267 4294311884
5.152204 145.23732 1332.4554 4278788371
-329.00919 150.90868 1280.8579 4287735413
-49.0089 186.86595 1329.7368 4288261748
-244.9458 69.006798 1294.2671 4290171030
-116.63501 195.00909 1318.1497 4288525179
4.9221568 77.116104 1337.8339 4288985471
302.95917 -70.927673 1387.5062 4287077217
80.520157 86.715698 1342.948 4278591250
313.00699 160.80063 1391.4351 4286813790
22.926291 172.944 1341.8602 4287735149
-304.94748 -43.038006 1282.5015 4288855940
74.967896 -16.868557 1348.8303 4287932781
234.97797 -178.8631 1374.7793 4287603300
185.0645 96.847572 1368.8424 4287208806
76.999702 -87.006905 1348.6511 4287998573
252.17746 -157.10378 1377.9282 4287799652
34.815659 -136.90485 1340.7728 4288195440
-265.04178 -19.088753 1289.7412 4290500505
-150.91031 137.12335 1311.4735 4289973652
-2.8576052 40.661026 1336.1398 4289249409
-276.73605 14.849928 1288.1388 4290237590
287.04004 -61.075256 1384.8638 4287142498
-122.95576 99.043259 1315.8201 4291223970
-43.029472 79.165024 1329.552 4290037902
-209.01199 -57.014526 1299.0784 4291816610
-56.976479 -49.089806 1325.7876 4290567068
-207.62334 -1.4240729 1299.9657 4292344505
-136.97665 127.02066 1313.7142 4290434453
129.5567 -54.940865 1358.0154 4288063340
-1.5969027 -199.42371 1333.9186 4287800940
-261.1463 56.883587 1291.3025 4290236564
-109.17989 -140.97212 1315.6094 4289513608
-322.80234 -228.69719 1277.2428 4286153050
180.86739 150.87302 1368.746 4287142756
39.185658 -113.07343 1341.8105 4288392561
2.6675518 -63.205875 1335.9446 4289248128
-165.0291 159.15451 1309.3826 4289578121
-88.270149 -63.029869 1317.2019 4278590739
-81.702736 -32.663815 1322.1838 4292073894
133.5464 103.03127 1360.1428 4287537513
-284.48749 -38.943813 1286.0574 4289513093
135.46918 43.240498 1360.0771 4287800169
263.76202 -146.78787 1380.0422 4287209060
-67.014702 122.83814 1325.8125 4289316233
-89.215134 -26.894661 1320.1746 4291357104
-10.818629 38.840446 1334.7162 4289578628
-118.89101 18.821186 1315.6877 4293722046
-251.11447 -8.9628553 1292.2699 4291225253
253.01714 -187.09766 1377.8595 4287536994
-144.91373 -128.82256 1309.4927 4290171795
-58.87598 110.87678 1327.3013 4289709704
-69.183426 -61.113953 1323.5046 4291222939
-263.5394 -194.90916 1287.9009 4288064882
-73.01017 28.969755 1323.7969 4291224995
5.1228666 -77.16481 1336.3284 4289117308
348.86871 -170.95557 1394.5541 4286945887
-108.91108 -199.09296 1314.9363 4288327286
-144.75392 -73.027237 1310.1805 4292475053
25.121542 174.8596 1342.2377 4287604079
325.15656 -203.08904 1390.1661 4287208802
225.04913 -152.78923 1373.3298 4287471715
112.85275 61.177937 1356.1614 4287669868
212.74736 -187.12485 1370.9171 4287603815
-12.796156 167.07816 1335.7432 4288130161
224.94376 -137.175 1373.5243 4287537253
-323.00848 -180.88286 1277.739 4287932273
-160.31877 -198.7766 1306.0767 4288327538
-180.8773 -98.91465 1303.4675 4290437024
146.97205 133.03455 1362.723 4287405671
21.010433 -6.9801936 1339.8127 4288986237
-231.00282 126.82097 1297.3914 4290103437
190.12677 -77.161125 1367.9584 4287800425
124.88338 -105.17511 1356.7037 4287866218
-231.00525 -130.98854 1294.3842 4289314433
-71.118881 34.971092 1324.2389 4290831003
190.34593 121.07426 1369.8981 4287274597
318.44138 -89.112755 1389.9148 4286879839
274.92041 52.825825 1383.8418 4286945891
-294.97101 178.84039 1287.0681 4287998323
-263.08356 64.921036 1291.1699 4290105747
-256.97266 150.95093 1293.2445 4288524926
-66.986404 -30.891027 1324.2556 4290961051
-116.02014 174.8649 1318.0308 4289050496
200.88321 -94.966354 1369.6727 4287603557
-65.622818 -75.049141 1323.9102 4290105229
242.94376 -158.85345 1376.2917 4287406181
-297.01053 -135.02286 1282.7445 4288394364
-210.95337 -170.99655 1297.2981 4288722813
92.850899 -85.005814 1351.3322 4287866989
-139.13876 -86.875931 1310.9468 4291816107
-227.15862 -118.96102 1295.1318 4289776267
292.91461 -153.164 1384.9012 4287274852
226.9679 22.765982 1375.3253 4287405926
-30.627619 131.21503 1326.9694 4278853393
-262.88873 -177.07381 1288.1267 4288393335
203.02603 -133.10458 1369.6074 4287734631
-53.061512 -134.87517 1325.4192 4288657275
92.818497 14.90777 1352.2856 4287734635
53.007278 -190.92731 1343.313 4287538026
14.825396 69.053986 1339.5197 4288788346
193.31664 -116.8311 1368.2695 4287800424
-54.621815 -146.73837 1317.0603 4278722063
-154.86755 -99.077881 1308.1775 4291159457
232.86707 -220.51582 1374.3624 4285493580
-254.86179 -66.987946 1290.9553 4290038414
137.04308 163.1144 1361.3369 4287274598
191.00742 51.01606 1369.4862 4287471206
-1.8915372 5.0498533 1335.9415 4289643655
74.957718 100.95322 1341.6947 4278919697
146.96788 -53.123302 1361.0282 4287669352
194.93015 25.126295 1369.9064 4287537255
321.08316 0.99376863 1391.2469 4287010914
-159.06358 151.03732 1310.2213 4289579661
-109.74675 77.30658 1317.9491 4291291549
52.053219 -12.654276 1343.8447 4284838727
-292.50809 72.934662 1286.1309 4289052035
-156.97824 84.949776 1309.864 4292408230
-3.1668105 52.499878 1336.6267 4285427523
64.985382 166.85954 1348.9846 4287471978
350.97977 -105.01997 1395.5035 4286879582
-136.45357 -29.389006 1312.1053 4293394113
-190.48747 -76.866211 1302.0847 4291421859
-123.35679 -73.167961 1313.8721 4292407719
-154.37512 63.108894 1310.0869 4293328563
187.01068 -164.80591 1366.87 4287734886
167.03493 81.117836 1365.6752 4287405671
222.96747 -208.86298 1372.4664 4287800680
200.85507 -113.03495 1369.5065 4287603045
263.13821 112.94749 1382.356 4286879841
281.09875 42.909687 1384.9574 4287010914
-306.91269 -146.97789 1280.9125 4288525176
-124.86668 112.98749 1315.6689 4290566299
313.0986 148.96162 1391.317 4286879327
-48.457264 108.92341 1324.2632 4278919186
-297.06091 -49.172997 1283.7655 4289709192
183.17213 9.1662951 1367.7942 4287406438
5.170146 191.04501 1338.9244 4287735663
316.88852 -161.12154 1388.9778 4287077730
-90.955109 -153.09253 1318.7283 4288723579
237.1198 195.13632 1378.6552 4286879329
-260.86584 -192.85678 1288.4718 4287933554
-246.36868 71.135696 1294.106 4289975189
-71.223656 -127.03001 1313.4191 4279380250
158.96165 96.918076 1364.4786 4287405926
-78.930191 -180.84917 1320.6051 4288130674
-296.565 -196.9249 1282.0989 4287801968
57.009415 -56.999439 1345.3394 4288130416
-289.06955 -196.8293 1283.4436 4288064115
-92.067604 -197.52176 1318.0244 4287999860
196.83687 79.044258 1370.8213 4287405668
284.99783 33.155224 1385.4497 4287076706
151.35612 -9.0721502 1362.1334 4287734890
-0.58816886 194.68945 1338.0514 4287866992
-320.02328 -35.250267 1280.0048 4289051520
86.87545 25.170963 1351.3585 4287669357
-59.187359 -51.106716 1325.4028 4290566292
-280.3634 -109.13167 1286.0577 4289117312
-278.55667 25.187832 1288.0436 4290499215
-108.97007 8.8136234 1317.2813 4293393589
165.31877 -60.87188 1364.0735 4287537512
-285.69293 -35.074932 1285.9615 4289775752
314.53983 -28.802549 1389.9285 4287076706
-278.88251 -218.92094 1284.9552 4287604335
326.89682 -120.89931 1391.1674 4286946144
-193.03792 72.968498 1303.4045 4292212146
212.76802 71.134972 1373.3263 4287274341
126.9557 190.91187 1359.8535 4287274598
40.419777 75.145996 1343.9924 4288523891
-29.07752 -10.852201 1331.099 4289973904
351.14221 123.17981 1397.4882 4286419295
82.930664 -222.86058 1348.3967 4284309571
-316.98047 35.065331 1281.364 4288788093
-222.91321 101.1283 1298.6064 4291025307
272.98138 58.933769 1383.4384 4287076704
-242.84685 94.869583 1295.0786 4290369173
213.55074 -80.946823 1372.1124 4287406438
27.102001 -206.82622 1338.7573 4287604074
-258.91 155.00552 1293.0447 4288525692
-118.83775 133.0209 1317.0183 4290105488
-179.10477 128.98228 1306.6061 4290237587
-92.662056 -0.97242743 1320.1152 4292934319
219.20045 -139.03656 1372.4529 4287668582
-180.94913 -157.06392 1302.8967 4289315206
106.97552 99.049614 1355.4604 4287734890
-1.1431031 -214.85938 1333.6525 4287931757
-255.06258 147.14999 1293.5618 4288525179
316.9834 202.79854 1392.4745 4286681951
323.10864 52.894836 1392.214 4286879585
-177.00824 -135.0954 1303.7065 4289777547
-116.98805 -68.915428 1315.0076 4291946914
-112.97329 -60.830189 1315.825 4292342442
-311.17731 -11.098227 1281.8983 4289643402
260.84351 -33.038555 1380.567 4287143266
-164.8931 -64.816673 1306.7125 4292802738
-311.00128 -20.92131 1281.8077 4289774731
-328.94211 -60.78363 1280.8419 4281808675
-65.152267 138.83987 1326.3102 4289117312
-58.99432 156.91426 1327.6639 4288459640
-173.15874 -6.9828172 1305.8933 4294377423
301.72195 -202.96574 1386.0221 4287406435
-150.95288 -186.91985 1307.8522 4288657015
-114.37981 -28.391411 1316.021 4292738999
-203.45956 97.077019 1301.8628 4291617186
302.91684 116.89548 1389.3073 4286879584
-108.95979 -40.812931 1316.8685 4292802993
37.180859 -21.146385 1342.4009 4288787574
-133.15231 -128.95894 1311.5125 4290170259
-262.99722 3.0681489 1290.3864 4290762904
-291.10455 159.08148 1287.5198 4288261752
65.156883 -87.095245 1346.5774 4288064111
169.32607 -118.96336 1364.2004 4287471975
94.883499 57.081478 1353.0984 4287735917
142.95564 -41.099121 1360.3668 4287734891
-64.987244 -149.12178 1323.412 4288722298
226.79166 46.827881 1375.4725 4287274597
-256.16507 37.053188 1292.0226 4290764192
110.67179 -133.03029 1353.8655 4287735403
82.885345 -25.200495 1350.2559 4287998319
23.06275 12.822058 1340.3949 4288788600
98.787872 -214.96347 1350.9366 4287537769
-127.71697 -183.05644 1311.899 4289050237
274.95886 -18.979115 1383.2032 4287011425
307.01715 -58.817856 1388.2455 4287142755
-100.95903 107.00006 1319.8013 4290368152
-239.02652 153.03134 1296.42 4288920451
159.05634 -133.04369 1362.2341 4287800169
-290.95682 -93.022491 1284.4111 4289380740
-247.44321 -93.008171 1291.9044 4289643913
50.871609 89.006004 1345.877 4287932783
244.81163 -184.79262 1376.5647 4287274852
-61.108959 18.92996 1325.8163 4291091870
-189.06314 143.00134 1304.9319 4289776783
-58.963421 -78.953659 1325.1028 4290302863
269.17886 73.008278 1383.0079 4286879583
-186.47084 -228.73293 1306.8588 4279242765
256.84695 -172.9908 1378.6576 4287406180
171.01012 -154.84174 1364.1478 4287799913
-51.242439 -127.18169 1325.8391 4289052290
-94.84716 170.85115 1321.5592 4288853373
-320.97284 38.829601 1280.8164 4288919680
197.00037 162.89807 1371.6241 4287077220
299.11792 -214.9437 1385.4116 4287406434
-307.31845 96.920296 1283.8993 4288853885
266.99524 186.98987 1383.6807 4286944863
112.93445 -52.877369 1355.1831 4287997548
-62.395054 4.3108296 1327.074 4283919434
-246.96596 6.8447061 1293.1755 4291685032
-301.01044 -73.024574 1282.8431 4289643400
10.975179 6.9771028 1338.1447 4288987265
120.88193 -217.21179 1354.7158 4287668839
-117.01201 183.07486 1317.8049 4288525948
-244.99228 178.85989 1295.7623 4288524413
-96.959175 -175.1693 1317.3823 4288394104
94.987663 94.92868 1353.4093 4287800427
122.75679 -15.030436 1357.2258 4288063084
-199.57831 -121.17487 1299.9086 4290696854
-207.11244 118.91734 1301.5519 4290367892
-172.99486 -193.11377 1303.8218 4288657019
-249.09935 63.07436 1293.5054 4290171023
93.144951 132.87973 1353.4712 4287668843
-24.997288 -10.857079 1331.7041 4289973391
-326.63925 -228.93019 1280.9381 4279046151
338.43777 164.86295 1395.9407 4286813534
81.124146 108.99089 1351.2222 4287603563
-55.869984 94.839798 1319.8417 4278919700
16.866682 182.95576 1340.8403 4287669614
268.86334 147.17963 1383.7084 4286879328
-82.002419 -176.17996 1320.0392 4288065397
116.76212 -203.09155 1354.0878 4287669097
209.0237 -170.96196 1370.3613 4287472229
-3.3401155 19.059483 1335.8701 4289512838
100.80109 -81.179878 1352.6909 4288063085
-86.161629 77.346313 1322.0353 4290893716
-150.55652 175.43407 1312.0244 4289051777
-260.39795 -54.931335 1290.0638 4290959769
63.050194 179.17696 1348.6954 4287471721
346.85922 -17.199291 1395.6533 4286747998
-31.092875 -191.10518 1328.7808 4287932527
-319.00006 83.157738 1281.6064 4288853374
-106.87753 -128.87518 1316.2266 4289841031
10.937326 156.91777 1339.6307 4288064369
146.96222 -32.872017 1361.3176 4287865706
96.785248 163.18343 1354.3751 4287340648
-260.63217 120.8324 1292.1919 4289446279
-238.87584 -133.09335 1292.8525 4289379713
-305.13766 184.99329 1285.4979 4287669361
347.05502 -86.968513 1395.1975 4286747998
32.857197 -134.90585 1340.3702 4288130158
-274.90689 -85.076736 1287.3118 4289577864
141.19545 168.90399 1362.1049 4287405157
170.85399 -36.970222 1365.2511 4287669351
202.87112 124.77639 1372.3307 4287142756
7.0534987 -37.019508 1337.1312 4289249151
-87.104942 74.938988 1321.8649 4291813786
77.782692 -150.89687 1348.0886 4287669608
262.35452 -126.97629 1379.9301 4287471460
-235.66316 -95.919853 1293.9619 4290104206
-202.91571 52.824425 1301.4574 4292803768
135.54782 -144.85507 1358.0968 4287603558
289.02704 104.85249 1386.8374 4286879841
-283.01102 -196.88759 1284.4572 4288064625
253.1145 200.85608 1381.5795 4286747745
-194.9953 -37.179916 1301.6589 4293328573
-88.221542 -77.780418 1316.6241 4278721810
-180.99832 -18.971403 1304.3651 4293918671
-298.94443 -162.84871 1282.1172 4288590714
257.74213 172.86908 1382.0254 4286813537
-95.022003 -0.97193038 1319.6195 4292212147
-186.93913 -93.170059 1302.5151 4291486363
263.02441 16.866365 1381.3743 4287011427
88.827362 -29.136282 1351.1754 4287933037
-109.11246 -143.12004 1315.6508 4289577604
10.930643 -63.176094 1337.4734 4288920186
110.85705 5.0582914 1355.3613 4287931755
169.2915 -120.88828 1364.1991 4287538023
241.08543 -189.16364 1375.7378 4287668837
240.74678 14.716403 1377.7218 4287339365
24.495646 152.99167 1341.9319 4287669871
180.38852 98.646866 1367.8898 4287340134
-134.20256 -78.583748 1312.0496 4291818923
251.13789 180.75674 1380.8562 4286747998
323.07474 -67.132813 1391.1537 4286945888
326.99658 -160.93553 1390.766 4287142753
-273.04489 -155.12492 1286.787 4288393595
219.44821 -186.8549 1372.0875 4287603556
233.03952 -169.17752 1374.4863 4287668838
-162.90414 159.17564 1309.6938 4289643909
89.422935 -223.50072 1350.0605 4279046662
207.69403 16.694859 1372.0244 4287602791
-207.05304 37.166847 1300.601 4292804289
-313.146 162.93388 1283.8087 4287801203
257.15369 93.080841 1381.3585 4287011425
52.068047 134.16736 1340.9706 4278656524
-215.02144 1.1413513 1298.6129 4293328567
337.07513 138.84134 1395.4806 4286617183
256.97794 192.79877 1382.1519 4286551134
299.05905 -104.94809 1386.4424 4287208546
-115.08089 -46.984428 1315.5725 4292804016
348.95203 137.11739 1397.6425 4286550621
74.817368 62.784229 1349.7626 4287866734
-251.58348 -27.224335 1291.9131 4291357098
200.20636 146.84756 1371.9933 4287010915
-196.9469 73.028992 1302.7034 4292474033
140.79724 -168.97746 1358.7756 4287734887
64.876541 -185.19643 1345.4037 4287603307
-75.059776 -205.21771 1320.8523 4287866736
262.96893 -27.002058 1381.0117 4287143011
43.641556 -150.83041 1342.0837 4287801455
-237.02211 -133.11429 1293.224 4289118336
-87.025688 124.98744 1322.3748 4289972877
-59.027763 -132.85689 1324.4463 4288722302
-78.909172 -175.03607 1320.6309 4288524659
135.15445 104.95866 1360.4277 4287537513
-325.04175 -144.90004 1278.2855 4288326517
117.16599 132.88574 1357.6084 4287471463
-163.05087 -85.022873 1306.7223 4292407721
-174.957 -69.032806 1304.884 4292736695
-164.88377 -174.99538 1305.447 4288985981
-251.10332 -16.982676 1292.1727 4291422368
275.0708 131.02501 1384.5682 4286945119
354.84232 -203.09854 1394.4404 4287008859
237.01959 95.189583 1377.757 4287011428
198.88995 -133.01001 1368.9351 4287537767
-8.8845978 -24.875578 1334.454 4289774216
-47.645252 186.72894 1329.9465 4288261748
-125.00523 -153.03503 1312.6775 4289445764
169.75835 58.782326 1366.0614 4287668071
247.11458 -154.91655 1376.9629 4287537508
42.736053 -206.8461 1341.391 4287603817
148.75439 -199.27031 1359.7981 4287669095
260.84973 -53.198776 1380.281 4287143267
-115.10282 -65.11412 1315.4379 4291751337
-274.80405 -6.8274174 1288.1528 4290566808
-232.9679 -178.85159 1293.4097 4288394105
-110.1942 -92.381096 1316.0137 4289714579
286.99542 -25.101379 1385.2036 4287077219
349.13437 -7.0007873 1396.1307 4286748000
-321.02194 -39.069889 1279.739 4289248644
215.2643 -102.89066 1372.1682 4287734376
-169.01271 51.056988 1307.3579 4293262780
-201.01366 -103.07482 1299.8333 4291288480
-41.015728 163.08792 1330.8175 4288261749
-104.83948 64.985756 1318.6788 4291882666
-303.15555 45.044296 1283.8634 4289315204
5.1689177 189.07056 1338.8763 4287735405
263.02856 151.08386 1382.6543 4286879584
80.914986 -44.988415 1349.7791 4288064109
135.16803 -160.84097 1357.6929 4287669864
-115.11291 -70.842201 1315.4043 4291881638
215.67181 -116.84997 1372.0393 4287734632
-28.795446 91.003159 1332.1282 4289380741
89.138969 77.207405 1352.2628 4287538285
-194.89154 32.928501 1302.5906 4293656258
352.63898 -52.980492 1396.1281 4286813021
-299.41809 -174.84508 1281.8411 4288130422
117.22937 -11.084051 1356.1517 4287800682
61.183105 3.1415944 1346.6975 4288063602
185.40517 -206.79066 1366.1437 4287603558
2.9461343 -79.073601 1335.8401 4288919677
-220.24872 7.3266983 1298.0259 4291491238
274.883 -100.91203 1382.3425 4287274083
-186.96297 115.03687 1305.075 4290894491
-312.98837 -227.12364 1278.8656 4287406702
-109.11523 164.86803 1319.0709 4288986755
-305.01266 -166.96371 1281.1097 4288327799
-178.87283 -222.85381 1302.3746 4287866992
139.21187 -200.53789 1358.0598 4287406952
-12.078293 183.51984 1336.0265 4287671153
242.89478 -14.846047 1377.7162 4287011683
224.87828 74.921547 1375.5493 4287273826
83.524162 150.98164 1352.0983 4287669355
-18.992516 -52.801338 1332.3634 4289774727
204.81883 -57.149391 1370.8168 4287537253
-68.982239 -188.86548 1322.1527 4287867505
-273.10788 35.131962 1288.9958 4290171542
270.39737 164.56964 1383.9814 4286944866
-328.78195 -73.742889 1280.6914 4280164627
243.0533 -168.99608 1376.3094 4287537765
328.87903 206.93477 1394.6991 4286550622
51.155361 151.0457 1346.4543 4287800429
-200.88361 152.94296 1303.0088 4289381513
